ncols 433
nrows 29
xllcorner 2487334.50232
yllcorner 4520257.07714
cellsize 2.5
NODATA_value -9999
136.1188 136.4879 136.7993 137.0761 137.3777 137.6828 137.9669 138.2159 138.4453 138.6308 138.8114 139.0121 139.2146 139.4171 139.6252 139.8406 140.0628 140.2874 140.5137 140.7428 140.9751 141.2179 141.4551 141.7123 141.9061 142.0556 142.0474 141.8091 141.5916 141.767 142.0139 142.3198 142.6689 143.0443 143.4301 143.8136 144.1884 144.5557 144.9291 145.3212 145.7119 146.0921 146.4773 146.8954 147.3801 147.965 148.6715 149.4976 150.4249 151.5446 152.9365 154.3402 155.5475 156.7764 157.7253 158.5009 159.208 159.7542 160.1915 160.5397 160.8573 161.2095 161.5435 161.8303 162.1037 162.3968 162.6761 162.9689 163.2628 163.5653 163.899 164.2653 164.6581 165.0678 165.5038 165.9726 166.4647 166.9713 167.4948 168.034 168.5851 169.1437 169.7064 170.2771 170.8786 171.5166 172.162 172.7769 173.4338 174.0095 174.5312 175.022 175.5008 175.9566 176.3732 176.7633 177.1601 177.5327 177.8922 178.2527 178.6301 178.9983 179.395 179.8235 180.2587 180.6985 181.1503 181.6234 182.1236 182.6484 183.1898 183.7386 184.2873 184.8318 185.3748 185.9201 186.4639 187.0067 187.5608 188.148 188.7466 189.321 189.8479 190.3307 190.7542 191.1201 191.4803 191.7792 192.0884 192.4185 192.7619 193.1179 193.4671 193.7695 193.9824 194.1434 194.3323 194.5835 194.787 194.8367 194.8399 194.9637 194.9339 194.4711 192.9576 191.1799 190.0135 189.3978 190.4542 193.7975 198.8367 201.4017 202.7036 203.5653 203.92 203.9954 204.0256 204.0338 204.0256 203.8954 203.6507 203.4183 203.2642 203.1526 202.8787 202.1563 201.3256 200.4357 199.691 198.9909 198.3286 197.7044 197.1157 196.5598 196.0374 195.5559 195.1333 194.8005 194.5268 194.4015 194.6166 195.451 196.9691 199.6977 202.7125 204.7294 205.9906 207.0221 207.7604 208.2424 208.4813 208.5492 208.5544 208.6127 208.8159 209.1968 209.7101 210.2471 210.8327 211.5144 212.2576 213.0466 213.7238 214.3895 215.0148 215.6129 216.1985 216.7678 217.3208 217.8666 218.4205 218.9912 219.5682 220.1488 220.7322 221.3171 221.9021 222.4922 223.0832 223.6702 224.245 224.8117 225.3692 225.9172 226.4641 226.9716 227.3284 227.7062 227.9588 -9999 -9999 -9999 -9999 -9999 -9999 -9999 -9999 -9999 -9999 -9999 -9999 -9999 -9999 -9999 -9999 -9999 -9999 -9999 -9999 -9999 -9999 -9999 -9999 -9999 -9999 -9999 -9999 -9999 -9999 -9999 -9999 -9999 -9999 -9999 -9999 -9999 -9999 -9999 -9999 -9999 -9999 -9999 -9999 -9999 -9999 -9999 -9999 -9999 -9999 -9999 -9999 -9999 -9999 -9999 -9999 -9999 -9999 -9999 -9999 -9999 -9999 -9999 -9999 -9999 -9999 -9999 -9999 -9999 -9999 -9999 -9999 -9999 -9999 -9999 -9999 -9999 -9999 -9999 -9999 -9999 -9999 -9999 -9999 -9999 -9999 -9999 -9999 -9999 -9999 -9999 -9999 -9999 -9999 -9999 -9999 -9999 -9999 -9999 -9999 -9999 -9999 -9999 -9999 -9999 -9999 -9999 -9999 -9999 -9999 -9999 -9999 -9999 -9999 -9999 -9999 -9999 -9999 -9999 -9999 -9999 -9999 -9999 -9999 -9999 -9999 -9999 -9999 -9999 -9999 -9999 -9999 -9999 -9999 -9999 -9999 -9999 -9999 -9999 -9999 -9999 -9999 -9999 -9999 -9999 -9999 -9999 -9999 -9999 -9999 -9999 -9999 -9999 -9999 -9999 -9999 -9999 -9999 -9999 -9999 -9999 -9999 -9999 -9999 -9999 -9999 -9999 -9999 -9999 -9999 -9999 -9999 -9999 -9999 -9999 -9999 -9999 -9999 -9999 -9999 -9999 -9999 -9999 -9999 -9999 -9999 -9999 -9999 -9999 -9999 -9999 -9999 -9999 -9999 -9999 -9999 -9999 -9999 -9999 -9999 -9999 -9999 -9999 -9999
135.7999 136.1233 136.4299 136.7489 137.0672 137.3663 137.6279 137.877 138.0845 138.2586 138.4491 138.6446 138.838 139.034 139.2381 139.4523 139.673 139.8931 140.1139 140.3379 140.5653 140.8005 141.0235 141.2497 141.4252 141.5717 141.5385 141.2813 141.2025 141.3991 141.6655 141.993 142.3681 142.7748 143.1972 143.6214 144.0459 144.4707 144.8846 145.301 145.7081 146.0957 146.4795 146.8908 147.3666 147.9397 148.6285 149.4272 150.3025 151.3531 152.6292 153.891 154.9576 155.9354 156.8692 157.7124 158.4148 158.9723 159.409 159.7884 160.1623 160.534 160.8596 161.1527 161.4483 161.7417 162.0106 162.2962 162.572 162.8616 163.1903 163.5495 163.9271 164.3386 164.7764 165.2444 165.7324 166.2403 166.7668 167.3078 167.8613 168.4315 169.0127 169.6011 170.1977 170.8201 171.4558 172.0911 172.7454 173.3418 173.9137 174.4539 174.9511 175.418 175.855 176.2788 176.6947 177.081 177.448 177.8224 178.1844 178.5494 178.9469 179.3665 179.789 180.2313 180.6964 181.1866 181.699 182.2297 182.7716 183.318 183.869 184.4084 184.9453 185.4784 186.0091 186.5504 187.1299 187.7246 188.3002 188.8379 189.349 189.8061 190.1986 190.5803 190.9471 191.2948 191.6463 191.99 192.3842 192.748 193.0903 193.3428 193.5079 193.6363 193.8441 193.9908 194.0821 194.0275 193.9662 193.882 193.7397 193.1756 191.2744 189.9836 189.4311 188.8837 190.248 194.2755 199.4647 201.3743 202.6319 203.3053 203.4953 203.4826 203.4715 203.4016 203.3735 203.1877 202.8251 202.6294 202.3555 202.1957 201.9525 201.324 200.6991 200.0264 199.343 198.6836 198.1072 197.6537 197.2077 196.7299 196.2262 195.7146 195.229 194.8114 194.3835 194.1208 194.3367 195.0943 196.6695 199.5108 202.5299 204.5177 205.8012 206.8864 207.6808 208.1619 208.3763 208.4163 208.3968 208.4323 208.6058 208.8727 209.3573 209.8759 210.4181 211.0241 211.7715 212.4637 213.1457 213.8178 214.447 215.0358 215.6069 216.1576 216.6941 217.2316 217.784 218.3466 218.9156 219.488 220.0613 220.634 221.2086 221.7899 222.3758 222.9568 223.5247 224.0846 224.6346 225.1721 225.6966 226.1632 226.576 226.9622 227.1721 -9999 -9999 -9999 -9999 -9999 -9999 -9999 -9999 -9999 -9999 -9999 -9999 -9999 -9999 -9999 -9999 -9999 -9999 -9999 -9999 -9999 -9999 -9999 -9999 -9999 -9999 -9999 -9999 -9999 -9999 -9999 -9999 -9999 -9999 -9999 -9999 -9999 -9999 -9999 -9999 -9999 -9999 -9999 -9999 -9999 -9999 -9999 -9999 -9999 -9999 -9999 -9999 -9999 -9999 -9999 -9999 -9999 -9999 -9999 -9999 -9999 -9999 -9999 -9999 -9999 -9999 -9999 -9999 -9999 -9999 -9999 -9999 -9999 -9999 -9999 -9999 -9999 -9999 -9999 -9999 -9999 -9999 -9999 -9999 -9999 -9999 -9999 -9999 -9999 -9999 -9999 -9999 -9999 -9999 -9999 -9999 -9999 -9999 -9999 -9999 -9999 -9999 -9999 -9999 -9999 -9999 -9999 -9999 -9999 -9999 -9999 -9999 -9999 -9999 -9999 -9999 -9999 -9999 -9999 -9999 -9999 -9999 -9999 -9999 -9999 -9999 -9999 -9999 -9999 -9999 -9999 -9999 -9999 -9999 -9999 -9999 -9999 -9999 -9999 -9999 -9999 -9999 -9999 -9999 -9999 -9999 -9999 -9999 -9999 -9999 -9999 -9999 -9999 -9999 -9999 -9999 -9999 -9999 -9999 -9999 -9999 -9999 -9999 -9999 -9999 -9999 -9999 -9999 -9999 -9999 -9999 -9999 -9999 -9999 -9999 -9999 -9999 -9999 -9999 -9999 -9999 -9999 -9999 -9999 -9999 -9999 -9999 -9999 -9999 -9999 -9999 -9999 -9999 -9999 -9999 -9999 -9999 -9999 -9999 -9999 -9999 -9999 -9999 -9999
135.4822 135.8018 136.1258 136.4494 136.7575 137.0316 137.2919 137.5298 137.7146 137.8989 138.0861 138.2759 138.4622 138.6541 138.8544 139.0683 139.2844 139.5011 139.7215 139.945 140.1697 140.3962 140.6082 140.8065 140.9763 141.1191 141.0731 140.828 140.8609 141.0715 141.3481 141.6865 142.0766 142.5045 142.9656 143.4629 143.9582 144.4282 144.8742 145.3202 145.7544 146.1622 146.5555 146.9623 147.4172 147.9592 148.6144 149.3718 150.1997 151.1796 152.3365 153.4178 154.3923 155.2769 156.0966 156.8674 157.5536 158.0989 158.5813 159.052 159.4675 159.8345 160.159 160.471 160.7881 161.0775 161.3473 161.6315 161.8833 162.1679 162.4935 162.8242 163.1861 163.6042 164.0554 164.529 165.0153 165.516 166.0329 166.5677 167.1273 167.7119 168.2987 168.9097 169.5341 170.1475 170.7672 171.4002 172.0269 172.6703 173.2959 173.8656 174.3816 174.8609 175.3193 175.7733 176.2061 176.6093 176.9963 177.3828 177.7426 178.116 178.5161 178.9155 179.3283 179.7788 180.2631 180.7638 181.2812 181.823 182.3819 182.9369 183.4668 183.9921 184.5178 185.0432 185.5673 186.1042 186.6521 187.2014 187.7484 188.3018 188.8152 189.2452 189.6436 190.0432 190.4309 190.817 191.2048 191.5985 192.055 192.422 192.7366 192.9224 193.0804 193.1647 193.3762 193.4144 193.3671 193.2089 193.054 192.8462 192.387 191.6628 190.1481 188.912 188.7365 190 189.7174 195.2524 200.131 201.3882 202.4513 202.9621 203.02 202.9406 202.8982 202.7303 202.6527 202.409 201.9744 201.7524 201.5656 201.3158 201.09 200.6372 200.1733 199.6786 199.1526 198.6293 198.1198 197.6266 197.1588 196.7468 196.3307 195.8381 195.3376 194.8872 194.3949 194.0537 194.1393 194.872 196.4507 199.1913 201.9267 204.2071 205.663 206.7877 207.6217 208.136 208.374 208.4285 208.4184 208.335 208.2885 208.6051 209.0351 209.5132 210.0331 210.6156 211.2791 211.9088 212.5792 213.2499 213.8898 214.4563 215.0028 215.5367 216.0667 216.6037 217.1505 217.7047 218.2642 218.8264 219.3899 219.9542 220.5219 221.0965 221.6747 222.2468 222.8067 223.3591 223.9046 224.4401 224.9444 225.4005 225.8371 226.2186 226.407 -9999 -9999 -9999 -9999 -9999 -9999 -9999 -9999 -9999 -9999 -9999 -9999 -9999 -9999 -9999 -9999 -9999 -9999 -9999 -9999 -9999 -9999 -9999 -9999 -9999 -9999 -9999 -9999 -9999 -9999 -9999 -9999 -9999 -9999 -9999 -9999 -9999 -9999 -9999 -9999 -9999 -9999 -9999 -9999 -9999 -9999 -9999 -9999 -9999 -9999 -9999 -9999 -9999 -9999 -9999 -9999 -9999 -9999 -9999 -9999 -9999 -9999 -9999 -9999 -9999 -9999 -9999 -9999 -9999 -9999 -9999 -9999 -9999 -9999 -9999 -9999 -9999 -9999 -9999 -9999 -9999 -9999 -9999 -9999 -9999 -9999 -9999 -9999 -9999 -9999 -9999 -9999 -9999 -9999 -9999 -9999 -9999 -9999 -9999 -9999 -9999 -9999 -9999 -9999 -9999 -9999 -9999 -9999 -9999 -9999 -9999 -9999 -9999 -9999 -9999 -9999 -9999 -9999 -9999 -9999 -9999 -9999 -9999 -9999 -9999 -9999 -9999 -9999 -9999 -9999 -9999 -9999 -9999 -9999 -9999 -9999 -9999 -9999 -9999 -9999 -9999 -9999 -9999 -9999 -9999 -9999 -9999 -9999 -9999 -9999 -9999 -9999 -9999 -9999 -9999 -9999 -9999 -9999 -9999 -9999 -9999 -9999 -9999 -9999 -9999 -9999 -9999 -9999 -9999 -9999 -9999 -9999 -9999 -9999 -9999 -9999 -9999 -9999 -9999 -9999 -9999 -9999 -9999 -9999 -9999 -9999 -9999 -9999 -9999 -9999 -9999 -9999 -9999 -9999 -9999 -9999 -9999 -9999 -9999 -9999 -9999 -9999 -9999 -9999
135.1824 135.5073 135.8315 136.1431 136.4275 136.6951 136.9504 137.1663 137.3514 137.5364 137.7242 137.9066 138.0896 138.2774 138.4771 138.6886 138.8996 139.1138 139.3342 139.5566 139.781 140.0025 140.2101 140.3998 140.569 140.7093 140.6678 140.4617 140.5693 140.7858 141.0623 141.4004 141.8036 142.2911 142.8271 143.373 143.8992 144.3922 144.8601 145.3322 145.794 146.2229 146.6276 147.0503 147.5167 148.0489 148.6623 149.3591 150.1209 151.0037 151.9658 152.8941 153.8104 154.6505 155.3845 156.0824 156.7081 157.3004 157.8576 158.3434 158.7636 159.1278 159.462 159.7936 160.116 160.4063 160.6835 160.9645 161.203 161.488 161.803 162.0981 162.4468 162.8707 163.3316 163.8118 164.308 164.8143 165.328 165.8579 166.414 166.9902 167.5772 168.2058 168.8546 169.4915 170.1081 170.7252 171.3663 172.021 172.6553 173.2369 173.7791 174.2901 174.775 175.2432 175.692 176.1173 176.5338 176.9259 177.306 177.688 178.0891 178.4752 178.8887 179.3479 179.8432 180.3664 180.9124 181.4723 182.0247 182.5522 183.0692 183.5821 184.0994 184.6117 185.1163 185.6174 186.1256 186.6489 187.1998 187.7543 188.2338 188.6645 189.0959 189.4978 189.897 190.3173 190.7377 191.2257 191.7209 192.0821 192.3371 192.5204 192.6527 192.6802 192.8013 192.7778 192.5791 192.3054 192.0091 191.6162 191.0419 190.1777 188.8074 187.4119 188.1591 188.5759 190.648 198.7874 201.0142 201.7443 202.0647 202.4957 202.4886 202.3763 202.3118 202.0675 201.9127 201.6211 201.1798 200.9433 200.7836 200.611 200.3765 200.0704 199.7016 199.2718 198.8772 198.5583 198.1463 197.6643 197.1722 196.6836 196.1889 195.6692 195.185 194.7615 194.2777 193.8588 193.8709 194.6018 196.0577 198.2346 201.0765 203.9663 205.6222 206.7828 207.6539 208.2033 208.4746 208.4961 208.2444 207.9711 208.0643 208.3745 208.7276 209.1611 209.6715 210.229 210.792 211.3925 212.0529 212.7339 213.3338 213.872 214.3977 214.9193 215.4433 215.973 216.5114 217.0591 217.6136 218.1702 218.7232 219.2761 219.8397 220.4073 220.9758 221.538 222.0908 222.6409 223.1835 223.7091 224.1934 224.662 225.1096 225.4695 225.6439 -9999 -9999 -9999 -9999 -9999 -9999 -9999 -9999 -9999 -9999 -9999 -9999 -9999 -9999 -9999 -9999 -9999 -9999 -9999 -9999 -9999 -9999 -9999 -9999 -9999 -9999 -9999 -9999 -9999 -9999 -9999 -9999 -9999 -9999 -9999 -9999 -9999 -9999 -9999 -9999 -9999 -9999 -9999 -9999 -9999 -9999 -9999 -9999 -9999 -9999 -9999 -9999 -9999 -9999 -9999 -9999 -9999 -9999 -9999 -9999 -9999 -9999 -9999 -9999 -9999 -9999 -9999 -9999 -9999 -9999 -9999 -9999 -9999 -9999 -9999 -9999 -9999 -9999 -9999 -9999 -9999 -9999 -9999 -9999 -9999 -9999 -9999 -9999 -9999 -9999 -9999 -9999 -9999 -9999 -9999 -9999 -9999 -9999 -9999 -9999 -9999 -9999 -9999 -9999 -9999 -9999 -9999 -9999 -9999 -9999 -9999 -9999 -9999 -9999 -9999 -9999 -9999 -9999 -9999 -9999 -9999 -9999 -9999 -9999 -9999 -9999 -9999 -9999 -9999 -9999 -9999 -9999 -9999 -9999 -9999 -9999 -9999 -9999 -9999 -9999 -9999 -9999 -9999 -9999 -9999 -9999 -9999 -9999 -9999 -9999 -9999 -9999 -9999 -9999 -9999 -9999 -9999 -9999 -9999 -9999 -9999 -9999 -9999 -9999 -9999 -9999 -9999 -9999 -9999 -9999 -9999 -9999 -9999 -9999 -9999 -9999 -9999 -9999 -9999 -9999 -9999 -9999 -9999 -9999 -9999 -9999 -9999 -9999 -9999 -9999 -9999 -9999 -9999 -9999 -9999 -9999 -9999 -9999 -9999 -9999 -9999 -9999 -9999 -9999
134.8896 135.214 135.5259 135.8165 136.0897 136.3538 136.5972 136.7975 136.9892 137.1726 137.3584 137.5384 137.7182 137.9015 138.1069 138.3134 138.521 138.735 138.9555 139.1738 139.3949 139.6134 139.826 140.0293 140.2043 140.3454 140.3272 140.1756 140.3213 140.5348 140.8063 141.175 141.6343 142.1589 142.7175 143.2791 143.8194 144.3275 144.8123 145.3037 145.7966 146.269 146.719 147.1613 147.619 148.1177 148.6778 149.308 149.9981 150.7485 151.5418 152.39 153.2457 154.0501 154.767 155.4148 156.0307 156.6121 157.1476 157.6283 158.0455 158.4161 158.7789 159.127 159.4435 159.733 160.0196 160.2936 160.5357 160.8245 161.1148 161.3871 161.7281 162.1515 162.6095 163.0948 163.6047 164.1278 164.6537 165.1832 165.7247 166.2872 166.8723 167.5084 168.1701 168.8255 169.4568 170.0851 170.7215 171.3674 171.9938 172.5849 173.1586 173.7094 174.2177 174.6969 175.1577 175.6067 176.045 176.4608 176.8582 177.2669 177.6585 178.049 178.4725 178.9348 179.4511 179.9988 180.5577 181.1117 181.6485 182.1712 182.6982 183.2231 183.7109 184.1851 184.6611 185.1404 185.6206 186.1232 186.6587 187.175 187.6311 188.093 188.538 188.9435 189.3624 189.7974 190.2749 190.8353 191.328 191.6639 191.8931 192.0766 192.1638 192.1216 192.0987 191.9807 191.6367 191.2222 190.7452 190.1951 189.4962 188.5548 186.504 186.1299 187.7627 189.3705 194.8843 200.2662 200 202.3148 202.0105 201.8685 201.8967 201.7951 201.7174 201.4245 201.1963 200.8801 200.4761 200.2508 200.0915 199.9687 199.7718 199.5215 199.2285 198.8771 198.5754 198.3676 198.1927 198.0293 197.6821 197.0705 196.3338 195.5846 194.9252 194.1243 193.378 193.0183 193.1855 194.0292 195.4129 197.5433 200.6993 203.7733 205.5448 206.7257 207.6277 208.1997 208.3495 208.1407 207.8005 207.6958 207.9099 208.1342 208.462 208.851 209.3084 209.8122 210.3461 210.9379 211.5907 212.232 212.771 213.2862 213.7965 214.3062 214.8203 215.35 215.8889 216.4344 216.9816 217.5245 218.0573 218.6016 219.1592 219.7188 220.2764 220.8293 221.38 221.9314 222.4685 222.9793 223.4641 223.9648 224.3916 224.7168 224.8468 224.9997 -9999 -9999 -9999 -9999 -9999 -9999 -9999 -9999 -9999 -9999 -9999 -9999 -9999 -9999 -9999 -9999 -9999 -9999 -9999 -9999 -9999 -9999 -9999 -9999 -9999 -9999 -9999 -9999 -9999 -9999 -9999 -9999 -9999 -9999 -9999 -9999 -9999 -9999 -9999 -9999 -9999 -9999 -9999 -9999 -9999 -9999 -9999 -9999 -9999 -9999 -9999 -9999 -9999 -9999 -9999 -9999 -9999 -9999 -9999 -9999 -9999 -9999 -9999 -9999 -9999 -9999 -9999 -9999 -9999 -9999 -9999 -9999 -9999 -9999 -9999 -9999 -9999 -9999 -9999 -9999 -9999 -9999 -9999 -9999 -9999 -9999 -9999 -9999 -9999 -9999 -9999 -9999 -9999 -9999 -9999 -9999 -9999 -9999 -9999 -9999 -9999 -9999 -9999 -9999 -9999 -9999 -9999 -9999 -9999 -9999 -9999 -9999 -9999 -9999 -9999 -9999 -9999 -9999 -9999 -9999 -9999 -9999 -9999 -9999 -9999 -9999 -9999 -9999 -9999 -9999 -9999 -9999 -9999 -9999 -9999 -9999 -9999 -9999 -9999 -9999 -9999 -9999 -9999 -9999 -9999 -9999 -9999 -9999 -9999 -9999 -9999 -9999 -9999 -9999 -9999 -9999 -9999 -9999 -9999 -9999 -9999 -9999 -9999 -9999 -9999 -9999 -9999 -9999 -9999 -9999 -9999 -9999 -9999 -9999 -9999 -9999 -9999 -9999 -9999 -9999 -9999 -9999 -9999 -9999 -9999 -9999 -9999 -9999 -9999 -9999 -9999 -9999 -9999 -9999 -9999 -9999 -9999 -9999 -9999 -9999 -9999 -9999 -9999
134.596 134.9079 135.2004 135.4782 135.7468 136.0012 136.2286 136.4326 136.6163 136.8068 136.9902 137.1684 137.3415 137.5354 137.7401 137.9432 138.1512 138.369 138.5842 138.7977 139.0148 139.2335 139.4664 139.6891 139.872 140.0184 140.0387 139.9414 140.1002 140.3177 140.6142 141.0085 141.4953 142.0519 142.6438 143.2317 143.7771 144.2665 144.7544 145.2539 145.7509 146.2234 146.6696 147.1035 147.5472 148.025 148.5563 149.1493 149.794 150.4656 151.1863 151.9619 152.7509 153.4979 154.1726 154.799 155.3849 155.9352 156.4498 156.9211 157.3363 157.7392 158.1232 158.471 158.78 159.0716 159.3622 159.6249 159.883 160.1726 160.4395 160.7057 161.047 161.4603 161.9101 162.4034 162.9261 163.4551 163.9986 164.535 165.0712 165.6237 166.2054 166.835 167.4861 168.1294 168.7904 169.4565 170.0975 170.7252 171.337 171.9433 172.541 173.1069 173.6327 174.1333 174.6144 175.0821 175.5387 175.9754 176.4002 176.8252 177.2261 177.6348 178.0638 178.5524 179.0814 179.6286 180.1835 180.7405 181.3022 181.8647 182.4059 182.886 183.3309 183.7654 184.2076 184.6642 185.128 185.611 186.1112 186.5814 187.048 187.532 187.9631 188.3839 188.828 189.2838 189.8424 190.3928 190.8351 191.1338 191.3726 191.5289 191.5559 191.4328 191.2458 190.9461 190.4917 189.9468 189.2358 188.5268 187.4524 186.248 184.7897 185.7388 188.1163 190.8144 198.1068 200.9942 201.4459 202.1768 202.1257 201.4234 201.2387 201.2002 201.1173 200.8005 200.5224 200.2154 199.8562 199.6087 199.4426 199.3402 199.1851 198.9795 198.7682 198.514 198.2346 198.1313 198.0732 197.9156 197.687 197.2762 196.6288 195.758 194.8676 193.4702 191.6975 190.9318 191.3049 192.8378 194.8541 197.3424 200.716 203.6061 205.2974 206.488 207.364 207.7978 207.8155 207.5884 207.42 207.5616 207.7022 207.9468 208.2317 208.5407 208.9238 209.3972 209.9426 210.5279 211.1408 211.7036 212.2085 212.7079 213.2055 213.6819 214.1874 214.7255 215.2652 215.8053 216.3425 216.8723 217.3909 217.9296 218.479 219.0288 219.5759 220.1227 220.6742 221.224 221.7536 222.2515 222.7745 223.2511 223.6421 223.9639 224.0632 224.2391 -9999 -9999 -9999 -9999 -9999 -9999 -9999 -9999 -9999 -9999 -9999 -9999 -9999 -9999 -9999 -9999 -9999 -9999 -9999 -9999 -9999 -9999 -9999 -9999 -9999 -9999 -9999 -9999 -9999 -9999 -9999 -9999 -9999 -9999 -9999 -9999 -9999 -9999 -9999 -9999 -9999 -9999 -9999 -9999 -9999 -9999 -9999 -9999 -9999 -9999 -9999 -9999 -9999 -9999 -9999 -9999 -9999 -9999 -9999 -9999 -9999 -9999 -9999 -9999 -9999 -9999 -9999 -9999 -9999 -9999 -9999 -9999 -9999 -9999 -9999 -9999 -9999 -9999 -9999 -9999 -9999 -9999 -9999 -9999 -9999 -9999 -9999 -9999 -9999 -9999 -9999 -9999 -9999 -9999 -9999 -9999 -9999 -9999 -9999 -9999 -9999 -9999 -9999 -9999 -9999 -9999 -9999 -9999 -9999 -9999 -9999 -9999 -9999 -9999 -9999 -9999 -9999 -9999 -9999 -9999 -9999 -9999 -9999 -9999 -9999 -9999 -9999 -9999 -9999 -9999 -9999 -9999 -9999 -9999 -9999 -9999 -9999 -9999 -9999 -9999 -9999 -9999 -9999 -9999 -9999 -9999 -9999 -9999 -9999 -9999 -9999 -9999 -9999 -9999 -9999 -9999 -9999 -9999 -9999 -9999 -9999 -9999 -9999 -9999 -9999 -9999 -9999 -9999 -9999 -9999 -9999 -9999 -9999 -9999 -9999 -9999 -9999 -9999 -9999 -9999 -9999 -9999 -9999 -9999 -9999 -9999 -9999 -9999 -9999 -9999 -9999 -9999 -9999 -9999 -9999 -9999 -9999 -9999 -9999 -9999 -9999 -9999 -9999
134.2902 134.5827 134.8628 135.1342 135.3932 135.6364 135.8577 136.0512 136.2422 136.4345 136.6171 136.7878 136.9702 137.1734 137.3757 137.5801 137.795 138.0117 138.2199 138.4301 138.6468 138.8818 139.1443 139.3778 139.5552 139.7075 139.866 139.8072 139.9559 140.2467 140.6195 141.0811 141.611 142.168 142.6959 143.195 143.6985 144.1988 144.6947 145.194 145.687 146.1527 146.5898 147.0123 147.4422 147.9026 148.4041 148.9684 149.5782 150.2123 150.8705 151.5652 152.2638 152.9284 153.5887 154.188 154.7567 155.2845 155.7803 156.2399 156.6773 157.0942 157.4808 157.8239 158.1331 158.4242 158.715 158.9719 159.2518 159.5279 159.7783 160.0578 160.4106 160.8136 161.2606 161.7419 162.2564 162.8051 163.3488 163.8948 164.4468 165.0055 165.5796 166.1742 166.7861 167.4301 168.1187 168.8162 169.4815 170.1023 170.7089 171.3144 171.9107 172.4814 173.0267 173.5562 174.0649 174.5501 175.0174 175.473 175.9258 176.3644 176.7886 177.2113 177.6753 178.1809 178.7034 179.2409 179.8188 180.4153 181.0138 181.5857 182.09 182.5377 182.9491 183.3662 183.7683 184.1837 184.6336 185.0974 185.5579 186.0091 186.4855 186.9542 187.3794 187.8245 188.2988 188.7842 189.3821 189.8762 190.2286 190.5082 190.7244 190.8349 190.7923 190.5797 190.2345 189.7371 189.0163 187.8218 187.1494 186.5504 185.6963 184.9089 184.5351 187.2929 191.6116 195.562 200.1216 201.1924 200.7836 200.9203 201.0731 200.9634 200.6229 200.5907 200.5099 200.1911 199.8684 199.5897 199.1998 198.9689 198.8187 198.7294 198.6274 198.4585 198.3221 198.159 197.9237 197.8666 197.8288 197.7805 197.5296 197.0838 196.4285 195.5654 194.6025 193.0085 190.9404 189.9244 190.1702 191.7944 194.4131 196.9967 200.3498 203.1904 204.8987 206.0113 206.7628 207.1104 207.1442 207.0796 207.2011 207.329 207.5392 207.7793 207.9716 208.2224 208.5782 209.0341 209.565 210.1189 210.6646 211.1658 211.6558 212.1417 212.6127 213.0348 213.5371 214.0824 214.6266 215.1597 215.6893 216.2114 216.7238 217.2569 217.7964 218.3352 218.8682 219.4173 219.9698 220.5124 221.0326 221.5437 222.0392 222.5008 222.8869 223.208 223.3205 223.5022 -9999 -9999 -9999 -9999 -9999 -9999 -9999 -9999 -9999 -9999 -9999 -9999 -9999 -9999 -9999 -9999 -9999 -9999 -9999 -9999 -9999 -9999 -9999 -9999 -9999 -9999 -9999 -9999 -9999 -9999 -9999 -9999 -9999 -9999 -9999 -9999 -9999 -9999 -9999 -9999 -9999 -9999 -9999 -9999 -9999 -9999 -9999 -9999 -9999 -9999 -9999 -9999 -9999 -9999 -9999 -9999 -9999 -9999 -9999 -9999 -9999 -9999 -9999 -9999 -9999 -9999 -9999 -9999 -9999 -9999 -9999 -9999 -9999 -9999 -9999 -9999 -9999 -9999 -9999 -9999 -9999 -9999 -9999 -9999 -9999 -9999 -9999 -9999 -9999 -9999 -9999 -9999 -9999 -9999 -9999 -9999 -9999 -9999 -9999 -9999 -9999 -9999 -9999 -9999 -9999 -9999 -9999 -9999 -9999 -9999 -9999 -9999 -9999 -9999 -9999 -9999 -9999 -9999 -9999 -9999 -9999 -9999 -9999 -9999 -9999 -9999 -9999 -9999 -9999 -9999 -9999 -9999 -9999 -9999 -9999 -9999 -9999 -9999 -9999 -9999 -9999 -9999 -9999 -9999 -9999 -9999 -9999 -9999 -9999 -9999 -9999 -9999 -9999 -9999 -9999 -9999 -9999 -9999 -9999 -9999 -9999 -9999 -9999 -9999 -9999 -9999 -9999 -9999 -9999 -9999 -9999 -9999 -9999 -9999 -9999 -9999 -9999 -9999 -9999 -9999 -9999 -9999 -9999 -9999 -9999 -9999 -9999 -9999 -9999 -9999 -9999 -9999 -9999 -9999 -9999 -9999 -9999 -9999 -9999 -9999 -9999 -9999 -9999
133.9605 134.2398 134.5166 134.7804 135.0285 135.2626 135.4718 135.6642 135.8638 136.0552 136.2304 136.4081 136.6062 136.8111 137.0154 137.229 137.4474 137.6586 137.8632 138.0754 138.2957 138.5727 138.8514 139.0662 139.2354 139.3991 139.5744 139.7843 139.9334 140.2892 140.6999 141.1521 141.6101 142.0911 142.596 143.1119 143.6274 144.1346 144.6324 145.1288 145.6207 146.088 146.5279 146.9427 147.3545 147.7969 148.2858 148.8153 149.3778 149.9601 150.547 151.1452 151.7446 152.3885 153.0149 153.5897 154.142 154.6584 155.1416 155.6015 156.0427 156.4604 156.8448 157.1881 157.4993 157.7946 158.0826 158.3615 158.6488 158.8977 159.1368 159.4384 159.8103 160.2142 160.6531 161.1323 161.6538 162.1829 162.7273 163.2884 163.8593 164.4171 164.978 165.5412 166.1303 166.7719 167.4669 168.1775 168.8523 169.4869 170.0955 170.6915 171.2803 171.8541 172.4223 172.9635 173.4853 173.9969 174.486 174.9588 175.428 175.8847 176.3291 176.7885 177.2796 177.7774 178.2845 178.8584 179.4879 180.1057 180.7037 181.2523 181.7394 182.2 182.6392 182.9783 183.3069 183.7094 184.1329 184.5661 185.0031 185.4521 185.9173 186.3586 186.7961 187.2829 187.7398 188.2633 188.8245 189.2332 189.5287 190.2843 190.6342 190.5255 190.0772 189.563 189.0525 188.3189 186.7755 185.5077 185.1564 184.9719 184.7756 184.4601 184.9738 188.7928 194.0188 196.9662 199.781 200.4314 200.1192 200.0959 200.1221 200.0207 199.945 199.9603 199.8826 199.563 199.1812 198.9016 198.4896 198.3365 198.2454 198.1573 198.1017 197.9656 197.8819 197.7922 197.6393 197.474 197.5663 197.4572 197.2639 196.8131 196.1087 195.239 194.1052 192.6136 190.7796 189.6315 189.4579 191.1506 193.8138 196.3763 199.2704 202.0803 204.2335 205.4913 205.9819 206.3395 206.5095 206.6971 206.8891 207.1187 207.3699 207.5236 207.6906 207.9331 208.2753 208.7078 209.1829 209.6691 210.1523 210.6319 211.1071 211.5673 211.9981 212.3738 212.8735 213.4203 213.9685 214.503 215.0279 215.5432 216.0543 216.5802 217.1071 217.6199 218.1492 218.7034 219.2585 219.7943 220.3054 220.8086 221.3059 221.7556 222.1296 222.448 222.603 222.7876 -9999 -9999 -9999 -9999 -9999 -9999 -9999 -9999 -9999 -9999 -9999 -9999 -9999 -9999 -9999 -9999 -9999 -9999 -9999 -9999 -9999 -9999 -9999 -9999 -9999 -9999 -9999 -9999 -9999 -9999 -9999 -9999 -9999 -9999 -9999 -9999 -9999 -9999 -9999 -9999 -9999 -9999 -9999 -9999 -9999 -9999 -9999 -9999 -9999 -9999 -9999 -9999 -9999 -9999 -9999 -9999 -9999 -9999 -9999 -9999 -9999 -9999 -9999 -9999 -9999 -9999 -9999 -9999 -9999 -9999 -9999 -9999 -9999 -9999 -9999 -9999 -9999 -9999 -9999 -9999 -9999 -9999 -9999 -9999 -9999 -9999 -9999 -9999 -9999 -9999 -9999 -9999 -9999 -9999 -9999 -9999 -9999 -9999 -9999 -9999 -9999 -9999 -9999 -9999 -9999 -9999 -9999 -9999 -9999 -9999 -9999 -9999 -9999 -9999 -9999 -9999 -9999 -9999 -9999 -9999 -9999 -9999 -9999 -9999 -9999 -9999 -9999 -9999 -9999 -9999 -9999 -9999 -9999 -9999 -9999 -9999 -9999 -9999 -9999 -9999 -9999 -9999 -9999 -9999 -9999 -9999 -9999 -9999 -9999 -9999 -9999 -9999 -9999 -9999 -9999 -9999 -9999 -9999 -9999 -9999 -9999 -9999 -9999 -9999 -9999 -9999 -9999 -9999 -9999 -9999 -9999 -9999 -9999 -9999 -9999 -9999 -9999 -9999 -9999 -9999 -9999 -9999 -9999 -9999 -9999 -9999 -9999 -9999 -9999 -9999 -9999 -9999 -9999 -9999 -9999 -9999 -9999 -9999 -9999 -9999 -9999 -9999 -9999
133.6024 133.8821 134.1558 134.4135 134.655 134.8795 135.0776 135.2774 135.478 135.6624 135.8414 136.034 136.2419 136.4494 136.6642 136.8848 137.103 137.3089 137.5178 137.7327 137.9871 138.293 138.5428 138.7352 138.9157 139.0948 139.3028 139.5615 139.8777 140.2367 140.624 141.0472 141.5085 142.0018 142.5166 143.0403 143.5611 144.0713 144.5696 145.0637 145.5576 146.0278 146.4657 146.8807 147.2978 147.7331 148.1868 148.6613 149.1572 149.6696 150.1848 150.6987 151.2576 151.8695 152.4493 153.0025 153.537 154.0395 154.5149 154.9754 155.4154 155.8292 156.2127 156.5613 156.8642 157.1886 157.4912 157.7813 158.0706 158.2978 158.5495 158.8815 159.2629 159.6827 160.1363 160.6185 161.1224 161.6632 162.2341 162.7963 163.3278 163.8682 164.416 164.9748 165.5508 166.1727 166.8383 167.5181 168.1933 168.856 169.4904 170.0861 170.6664 171.2435 171.7961 172.3354 172.886 173.4228 173.9434 174.4374 174.913 175.3822 175.8565 176.3448 176.8254 177.312 177.8579 178.5017 179.1493 179.7562 180.3334 180.9014 181.4494 181.92 182.2394 182.4953 182.8489 183.2274 183.6118 184.0047 184.4412 184.8897 185.3319 185.7607 186.2298 186.7208 187.1385 187.6593 188.1101 188.3887 188.6261 189.4284 189.7337 189.5402 188.9136 188.2644 187.4798 186.4187 184.733 183.2973 183.8152 183.9794 184.3264 184.4372 185.9258 190.2921 195.0118 196.8558 198.423 198.9361 199.0049 199.2627 199.1948 199.0918 199.0926 199.2219 199.1591 198.8436 198.4288 198.1515 197.791 197.7149 197.6851 197.6364 197.6018 197.5023 197.4365 197.3963 197.2997 197.1018 197.0839 197.0957 196.8099 196.3693 195.6758 194.8084 193.5229 191.7909 190.4772 189.6461 189.2193 190.0429 192.6911 195.6962 198.4059 201.1344 203.4028 204.9423 205.3191 205.6197 205.9663 206.2722 206.565 206.8591 207.0583 207.2146 207.3895 207.6471 207.9843 208.3667 208.759 209.1703 209.6226 210.0892 210.5419 210.9736 211.3594 211.7127 212.2059 212.7446 213.2913 213.8306 214.356 214.87 215.3815 215.896 216.3957 216.8947 217.4255 217.9793 218.533 219.0619 219.5779 220.0926 220.5767 221.0038 221.3726 221.6852 221.8948 222.0849 -9999 -9999 -9999 -9999 -9999 -9999 -9999 -9999 -9999 -9999 -9999 -9999 -9999 -9999 -9999 -9999 -9999 -9999 -9999 -9999 -9999 -9999 -9999 -9999 -9999 -9999 -9999 -9999 -9999 -9999 -9999 -9999 -9999 -9999 -9999 -9999 -9999 -9999 -9999 -9999 -9999 -9999 -9999 -9999 -9999 -9999 -9999 -9999 -9999 -9999 -9999 -9999 -9999 -9999 -9999 -9999 -9999 -9999 -9999 -9999 -9999 -9999 -9999 -9999 -9999 -9999 -9999 -9999 -9999 -9999 -9999 -9999 -9999 -9999 -9999 -9999 -9999 -9999 -9999 -9999 -9999 -9999 -9999 -9999 -9999 -9999 -9999 -9999 -9999 -9999 -9999 -9999 -9999 -9999 -9999 -9999 -9999 -9999 -9999 -9999 -9999 -9999 -9999 -9999 -9999 -9999 -9999 -9999 -9999 -9999 -9999 -9999 -9999 -9999 -9999 -9999 -9999 -9999 -9999 -9999 -9999 -9999 -9999 -9999 -9999 -9999 -9999 -9999 -9999 -9999 -9999 -9999 -9999 -9999 -9999 -9999 -9999 -9999 -9999 -9999 -9999 -9999 -9999 -9999 -9999 -9999 -9999 -9999 -9999 -9999 -9999 -9999 -9999 -9999 -9999 -9999 -9999 -9999 -9999 -9999 -9999 -9999 -9999 -9999 -9999 -9999 -9999 -9999 -9999 -9999 -9999 -9999 -9999 -9999 -9999 -9999 -9999 -9999 -9999 -9999 -9999 -9999 -9999 -9999 -9999 -9999 -9999 -9999 -9999 -9999 -9999 -9999 -9999 -9999 -9999 -9999 -9999 -9999 -9999 -9999 -9999 -9999 -9999
133.2329 133.5085 133.7786 134.0324 134.2719 134.4838 134.6837 134.8895 135.0835 135.2669 135.4567 135.6638 135.8759 136.0938 136.3178 136.5419 136.7573 136.9669 137.1821 137.4066 137.7111 137.9868 138.2001 138.4066 138.5969 138.8067 139.064 139.3792 139.7401 140.128 140.5414 140.9905 141.4751 141.9866 142.5104 143.0294 143.5267 144.0194 144.5144 145.0097 145.5054 145.9786 146.4157 146.8378 147.2449 147.6404 148.0341 148.4382 148.8647 149.317 149.7838 150.2617 150.7825 151.3479 151.886 152.4174 152.9295 153.4184 153.8889 154.3517 154.7901 155.1987 155.5851 155.925 156.2591 156.6074 156.9277 157.2422 157.5208 157.7621 158.0674 158.42 158.8062 159.2295 159.6922 160.1966 160.7355 161.2917 161.8272 162.3377 162.8515 163.3718 163.907 164.4582 165.0207 165.6019 166.2177 166.8643 167.5354 168.2191 168.8815 169.494 170.0703 170.6243 171.1669 171.7244 172.2875 172.8468 173.3784 173.889 174.382 174.8717 175.3628 175.8412 176.3208 176.8396 177.4576 178.1148 178.7493 179.3553 179.9871 180.5895 181.0996 181.4539 181.6955 182.0097 182.36 182.6961 183.0186 183.4242 183.8655 184.3055 184.7298 185.1712 185.6502 186.1012 186.4879 186.9008 187.1635 187.3594 187.5205 187.9228 188.2044 187.993 187.2954 186.4902 185.4086 184.0793 181.4399 180.3712 181.8069 183.6446 184.5276 186.0994 188.9486 193.1542 195.4989 196.2873 196.7149 197.1615 197.6774 197.9868 197.8848 197.7984 197.973 198.2147 198.256 198.0187 197.6274 197.3736 197.1341 197.1042 197.1268 197.1473 197.1183 197.0549 196.986 196.9563 196.89 196.7262 196.5366 196.502 196.2902 195.786 195.1141 194.2234 192.9273 191.1826 189.859 188.9529 188.5161 189.2488 191.2126 194.9735 198.4181 200.9796 202.9308 204.2444 204.8023 205.0128 205.4335 205.8059 206.1572 206.4426 206.6533 206.8243 207.0374 207.3209 207.6422 207.957 208.2782 208.6543 209.0804 209.5273 209.9545 210.364 210.7072 211.0637 211.5426 212.0602 212.5992 213.1334 213.6657 214.1924 214.7062 215.2005 215.6842 216.1807 216.7046 217.2417 217.763 218.3003 218.8319 219.3687 219.841 220.2577 220.6159 220.9219 221.1825 221.3797 -9999 -9999 -9999 -9999 -9999 -9999 -9999 -9999 -9999 -9999 -9999 -9999 -9999 -9999 -9999 -9999 -9999 -9999 -9999 -9999 -9999 -9999 -9999 -9999 -9999 -9999 -9999 -9999 -9999 -9999 -9999 -9999 -9999 -9999 -9999 -9999 -9999 -9999 -9999 -9999 -9999 -9999 -9999 -9999 -9999 -9999 -9999 -9999 -9999 -9999 -9999 -9999 -9999 -9999 -9999 -9999 -9999 -9999 -9999 -9999 -9999 -9999 -9999 -9999 -9999 -9999 -9999 -9999 -9999 -9999 -9999 -9999 -9999 -9999 -9999 -9999 -9999 -9999 -9999 -9999 -9999 -9999 -9999 -9999 -9999 -9999 -9999 -9999 -9999 -9999 -9999 -9999 -9999 -9999 -9999 -9999 -9999 -9999 -9999 -9999 -9999 -9999 -9999 -9999 -9999 -9999 -9999 -9999 -9999 -9999 -9999 -9999 -9999 -9999 -9999 -9999 -9999 -9999 -9999 -9999 -9999 -9999 -9999 -9999 -9999 -9999 -9999 -9999 -9999 -9999 -9999 -9999 -9999 -9999 -9999 -9999 -9999 -9999 -9999 -9999 -9999 -9999 -9999 -9999 -9999 -9999 -9999 -9999 -9999 -9999 -9999 -9999 -9999 -9999 -9999 -9999 -9999 -9999 -9999 -9999 -9999 -9999 -9999 -9999 -9999 -9999 -9999 -9999 -9999 -9999 -9999 -9999 -9999 -9999 -9999 -9999 -9999 -9999 -9999 -9999 -9999 -9999 -9999 -9999 -9999 -9999 -9999 -9999 -9999 -9999 -9999 -9999 -9999 -9999 -9999 -9999 -9999 -9999 -9999 -9999 -9999 -9999 -9999
132.847 133.1205 133.3866 133.6396 133.8692 134.0783 134.2934 134.498 134.6881 134.8761 135.0783 135.2931 135.5136 135.7413 135.9712 136.1968 136.4131 136.632 136.8511 137.1194 137.4066 137.6354 137.8677 138.0769 138.2934 138.5525 138.8696 139.2412 139.6481 140.0732 140.5203 140.9934 141.4846 141.9762 142.4694 142.9727 143.4764 143.9744 144.4644 144.9494 145.4326 145.8992 146.3324 146.7288 147.0952 147.4439 147.7897 148.1478 148.5295 148.9369 149.3583 149.8085 150.2923 150.8086 151.316 151.8221 152.3161 152.7944 153.2625 153.7266 154.1637 154.5733 154.9528 155.3081 155.6851 156.0513 156.3885 156.7361 157.0241 157.3404 157.6858 158.0398 158.4228 158.8485 159.3382 159.8784 160.4182 160.9341 161.4355 161.9316 162.4329 162.9443 163.4584 163.9813 164.5253 165.0842 165.6588 166.2703 166.935 167.6134 168.2724 168.8943 169.4779 170.0318 170.5812 171.1405 171.698 172.247 172.7881 173.317 173.8458 174.3549 174.8347 175.3114 175.8185 176.3855 177.0024 177.6319 178.2613 178.9646 179.6203 180.1423 180.5583 180.8338 181.1315 181.4761 181.7807 182.056 182.4091 182.8289 183.2615 183.685 184.1069 184.5726 185.0291 185.4086 185.7321 185.9898 186.1049 186.2067 186.2538 186.2117 186.1913 185.9903 185.3191 183.9899 181.8099 180.5111 179.616 180.3325 182.0043 184.1529 185.7634 189.0944 192.0872 194.6152 195.721 195.7231 195.4422 195.8316 196.271 196.5031 196.504 196.5041 196.7648 197.0022 197.1365 197.0854 196.8133 196.6115 196.4947 196.5032 196.5656 196.6357 196.6461 196.601 196.5213 196.4761 196.4066 196.253 195.9906 195.8054 195.6042 195.1451 194.4489 193.4158 192.1046 190.5706 189.1563 187.627 187.2054 188.2271 190.9435 194.5242 198.3422 200.7509 202.4441 203.4635 204.012 204.4398 204.862 205.2616 205.6145 205.9064 206.1246 206.3364 206.604 206.9079 207.1932 207.4571 207.7783 208.0998 208.5236 208.948 209.3566 209.73 210.0491 210.4317 210.8876 211.3831 211.9059 212.4304 212.9706 213.512 214.0203 214.5052 214.9901 215.4816 215.9711 216.4629 216.9836 217.5123 218.0606 218.6102 219.096 219.5087 219.8579 220.1608 220.4467 220.6578 -9999 -9999 -9999 -9999 -9999 -9999 -9999 -9999 -9999 -9999 -9999 -9999 -9999 -9999 -9999 -9999 -9999 -9999 -9999 -9999 -9999 -9999 -9999 -9999 -9999 -9999 -9999 -9999 -9999 -9999 -9999 -9999 -9999 -9999 -9999 -9999 -9999 -9999 -9999 -9999 -9999 -9999 -9999 -9999 -9999 -9999 -9999 -9999 -9999 -9999 -9999 -9999 -9999 -9999 -9999 -9999 -9999 -9999 -9999 -9999 -9999 -9999 -9999 -9999 -9999 -9999 -9999 -9999 -9999 -9999 -9999 -9999 -9999 -9999 -9999 -9999 -9999 -9999 -9999 -9999 -9999 -9999 -9999 -9999 -9999 -9999 -9999 -9999 -9999 -9999 -9999 -9999 -9999 -9999 -9999 -9999 -9999 -9999 -9999 -9999 -9999 -9999 -9999 -9999 -9999 -9999 -9999 -9999 -9999 -9999 -9999 -9999 -9999 -9999 -9999 -9999 -9999 -9999 -9999 -9999 -9999 -9999 -9999 -9999 -9999 -9999 -9999 -9999 -9999 -9999 -9999 -9999 -9999 -9999 -9999 -9999 -9999 -9999 -9999 -9999 -9999 -9999 -9999 -9999 -9999 -9999 -9999 -9999 -9999 -9999 -9999 -9999 -9999 -9999 -9999 -9999 -9999 -9999 -9999 -9999 -9999 -9999 -9999 -9999 -9999 -9999 -9999 -9999 -9999 -9999 -9999 -9999 -9999 -9999 -9999 -9999 -9999 -9999 -9999 -9999 -9999 -9999 -9999 -9999 -9999 -9999 -9999 -9999 -9999 -9999 -9999 -9999 -9999 -9999 -9999 -9999 -9999 -9999 -9999 -9999 -9999 -9999 -9999
132.4509 132.7216 132.9844 133.231 133.4525 133.6812 133.8994 134.1003 134.2916 134.491 134.7051 134.9253 135.1546 135.3891 135.6218 135.8485 136.0736 136.299 136.5331 136.8141 137.0518 137.3 137.5341 137.7622 138.0274 138.3515 138.7307 139.1356 139.5551 139.9918 140.4455 140.9129 141.3968 141.8923 142.3938 142.8957 143.3931 143.8831 144.3658 144.8491 145.3286 145.7865 146.2042 146.5763 146.9086 147.2161 147.5206 147.8369 148.1752 148.5294 148.9087 149.3256 149.7732 150.2481 150.7338 151.2211 151.6997 152.169 152.6372 153.1017 153.5398 153.9485 154.3304 154.7239 155.1272 155.5108 155.8855 156.2594 156.6236 156.9877 157.3445 157.733 158.1283 158.5753 159.0762 159.584 160.0874 160.5912 161.0928 161.5926 162.0896 162.5754 163.0549 163.5519 164.0701 164.6115 165.1706 165.7551 166.3742 167.0168 167.6504 168.2771 168.8913 169.4737 170.0259 170.5676 171.1088 171.6543 172.2045 172.7602 173.3023 173.8006 174.284 174.7901 175.3214 175.8784 176.4672 177.0806 177.7834 178.5016 179.0892 179.5755 179.9057 180.1864 180.5339 180.838 181.1013 181.4134 181.795 182.201 182.6126 183.0258 183.4565 183.928 184.341 184.6564 184.9043 185.0313 185.0298 184.9962 184.8905 184.6409 184.0961 183.4511 182.6802 181.118 179.8175 179.8536 181.3136 183.6305 185.4444 187.7544 189.9535 191.9769 193.6932 195.0107 195.3809 194.8475 194.6797 194.9936 195.1888 195.2973 195.3876 195.4862 195.6384 195.8122 195.9739 196.0638 196.0137 195.901 195.8719 195.9094 195.9992 196.0998 196.1517 196.1159 196.0305 195.9573 195.8642 195.7002 195.4305 195.111 194.8447 194.4374 193.7157 192.6007 191.2289 189.894 188.2522 186.2601 185.8274 187.7038 190.8276 194.149 197.6203 200.392 202.0718 203.0352 203.5534 203.7438 204.1637 204.6388 204.9828 205.2565 205.4894 205.7514 206.0645 206.3654 206.6213 206.9126 207.223 207.5306 207.9506 208.3575 208.7576 209.0793 209.4003 209.8123 210.2568 210.7352 211.2352 211.7503 212.2915 212.8282 213.3238 213.8147 214.3111 214.786 215.2472 215.7244 216.2217 216.7262 217.2791 217.8241 218.3244 218.7358 219.0877 219.4019 219.6877 219.9092 -9999 -9999 -9999 -9999 -9999 -9999 -9999 -9999 -9999 -9999 -9999 -9999 -9999 -9999 -9999 -9999 -9999 -9999 -9999 -9999 -9999 -9999 -9999 -9999 -9999 -9999 -9999 -9999 -9999 -9999 -9999 -9999 -9999 -9999 -9999 -9999 -9999 -9999 -9999 -9999 -9999 -9999 -9999 -9999 -9999 -9999 -9999 -9999 -9999 -9999 -9999 -9999 -9999 -9999 -9999 -9999 -9999 -9999 -9999 -9999 -9999 -9999 -9999 -9999 -9999 -9999 -9999 -9999 -9999 -9999 -9999 -9999 -9999 -9999 -9999 -9999 -9999 -9999 -9999 -9999 -9999 -9999 -9999 -9999 -9999 -9999 -9999 -9999 -9999 -9999 -9999 -9999 -9999 -9999 -9999 -9999 -9999 -9999 -9999 -9999 -9999 -9999 -9999 -9999 -9999 -9999 -9999 -9999 -9999 -9999 -9999 -9999 -9999 -9999 -9999 -9999 -9999 -9999 -9999 -9999 -9999 -9999 -9999 -9999 -9999 -9999 -9999 -9999 -9999 -9999 -9999 -9999 -9999 -9999 -9999 -9999 -9999 -9999 -9999 -9999 -9999 -9999 -9999 -9999 -9999 -9999 -9999 -9999 -9999 -9999 -9999 -9999 -9999 -9999 -9999 -9999 -9999 -9999 -9999 -9999 -9999 -9999 -9999 -9999 -9999 -9999 -9999 -9999 -9999 -9999 -9999 -9999 -9999 -9999 -9999 -9999 -9999 -9999 -9999 -9999 -9999 -9999 -9999 -9999 -9999 -9999 -9999 -9999 -9999 -9999 -9999 -9999 -9999 -9999 -9999 -9999 -9999 -9999 -9999 -9999 -9999 -9999 -9999
132.0507 132.3171 132.5751 132.8087 133.0494 133.2836 133.4988 133.6976 133.8983 134.115 134.3355 134.5634 134.7989 135.0362 135.2701 135.502 135.7347 135.9648 136.2208 136.4615 136.7151 136.9707 137.2142 137.4895 137.8234 138.1948 138.5809 138.9835 139.4111 139.8588 140.3177 140.7887 141.2717 141.7642 142.2623 142.7621 143.2611 143.7685 144.2879 144.7816 145.2411 145.6667 146.0441 146.3741 146.6712 146.9475 147.2178 147.497 147.7962 148.0843 148.432 148.812 149.2244 149.6761 150.1468 150.6162 151.0812 151.545 152.0155 152.4806 152.917 153.3253 153.745 154.1665 154.5883 155.0016 155.4198 155.8421 156.2564 156.6785 157.1034 157.5002 157.9167 158.3661 158.8107 159.2757 159.7743 160.2869 160.7962 161.2952 161.7745 162.2328 162.6922 163.1591 163.6512 164.1817 164.737 165.2947 165.8645 166.4606 167.0948 167.7365 168.3536 168.9264 169.4776 170.0159 170.552 171.0961 171.6494 172.2059 172.7291 173.2289 173.7514 174.2806 174.81 175.3522 175.9177 176.5441 177.2182 177.844 178.4102 178.8129 179.1645 179.5476 179.8797 180.1496 180.4379 180.7848 181.1549 181.5417 181.9401 182.3429 182.7793 183.2219 183.5831 183.8793 184.0799 184.0678 184.0001 183.83 183.5394 182.9235 182.1551 180.9857 180.172 179.7259 179.9221 181.5024 183.8262 186.2847 188.3833 190.1244 191.4882 192.7572 193.9324 194.661 194.1408 193.7344 194.0134 194.2518 194.3972 194.48 194.5696 194.6711 194.7847 194.9196 195.0582 195.1752 195.2445 195.2514 195.2616 195.3206 195.429 195.5459 195.6161 195.5985 195.5067 195.4037 195.2814 195.1024 194.835 194.4708 194.0179 193.5237 192.8319 191.7573 190.4598 189.0672 187.2744 185.3506 185.0635 187.057 190.5686 193.813 197.1778 200.2117 201.7634 202.6513 202.8994 202.8757 203.2753 203.8383 204.2011 204.5026 204.7855 205.0899 205.415 205.6973 205.9885 206.3221 206.6127 206.9539 207.3627 207.7595 208.1464 208.4378 208.7979 209.214 209.659 210.1275 210.6082 211.1109 211.6381 212.1488 212.6409 213.1478 213.6434 214.0988 214.5548 215.0219 215.4922 215.9809 216.5051 217.0379 217.5342 217.9475 218.314 218.6459 218.8665 219.1589 -9999 -9999 -9999 -9999 -9999 -9999 -9999 -9999 -9999 -9999 -9999 -9999 -9999 -9999 -9999 -9999 -9999 -9999 -9999 -9999 -9999 -9999 -9999 -9999 -9999 -9999 -9999 -9999 -9999 -9999 -9999 -9999 -9999 -9999 -9999 -9999 -9999 -9999 -9999 -9999 -9999 -9999 -9999 -9999 -9999 -9999 -9999 -9999 -9999 -9999 -9999 -9999 -9999 -9999 -9999 -9999 -9999 -9999 -9999 -9999 -9999 -9999 -9999 -9999 -9999 -9999 -9999 -9999 -9999 -9999 -9999 -9999 -9999 -9999 -9999 -9999 -9999 -9999 -9999 -9999 -9999 -9999 -9999 -9999 -9999 -9999 -9999 -9999 -9999 -9999 -9999 -9999 -9999 -9999 -9999 -9999 -9999 -9999 -9999 -9999 -9999 -9999 -9999 -9999 -9999 -9999 -9999 -9999 -9999 -9999 -9999 -9999 -9999 -9999 -9999 -9999 -9999 -9999 -9999 -9999 -9999 -9999 -9999 -9999 -9999 -9999 -9999 -9999 -9999 -9999 -9999 -9999 -9999 -9999 -9999 -9999 -9999 -9999 -9999 -9999 -9999 -9999 -9999 -9999 -9999 -9999 -9999 -9999 -9999 -9999 -9999 -9999 -9999 -9999 -9999 -9999 -9999 -9999 -9999 -9999 -9999 -9999 -9999 -9999 -9999 -9999 -9999 -9999 -9999 -9999 -9999 -9999 -9999 -9999 -9999 -9999 -9999 -9999 -9999 -9999 -9999 -9999 -9999 -9999 -9999 -9999 -9999 -9999 -9999 -9999 -9999 -9999 -9999 -9999 -9999 -9999 -9999 -9999 -9999 -9999 -9999 -9999 -9999
131.652 131.9128 132.1564 132.4044 132.6503 132.8824 133.0928 133.2979 133.5188 133.7432 133.9713 134.2073 134.4469 134.6845 134.9198 135.1572 135.3952 135.6348 135.8749 136.1259 136.391 136.6519 136.9399 137.275 137.6287 138.0009 138.3931 138.8149 139.2593 139.7135 140.173 140.6403 141.1178 141.6055 142.1026 142.6166 143.1701 143.7153 144.2184 144.6689 145.0779 145.4604 145.8075 146.1141 146.3853 146.6333 146.8735 147.1208 147.3627 147.607 147.9245 148.2695 148.6596 149.092 149.5488 150.0062 150.4628 150.9263 151.4005 151.864 152.308 152.7524 153.191 153.6318 154.0846 154.5341 154.988 155.4705 155.9678 156.4522 156.8867 157.3049 157.7201 158.1155 158.5349 159.0003 159.4922 160.0011 160.5082 160.9974 161.4614 161.9082 162.347 162.7993 163.2879 163.8066 164.3349 164.8717 165.4228 166.0044 166.6152 167.23 167.8154 168.3796 168.9377 169.4878 170.0278 170.5674 171.1141 171.6524 172.1774 172.7123 173.2427 173.7609 174.285 174.8262 175.3769 175.9454 176.5247 177.1003 177.5535 178.0448 178.5027 178.8936 179.2028 179.4787 179.8036 180.1518 180.5107 180.8851 181.2703 181.6582 182.0783 182.4709 182.7755 183.0908 183.2829 183.1572 183.0463 182.7422 182.2431 181.2104 180.5962 179.969 179.487 179.7211 181.0296 183.7842 186.2589 189.0863 190.4819 191.1483 192.0782 192.7553 193.6192 193.359 192.9853 193.1946 193.3893 193.5679 193.6803 193.7517 193.8346 193.9359 194.0728 194.2379 194.4037 194.5359 194.6106 194.6337 194.6573 194.7347 194.8597 194.9875 195.0636 195.0504 194.9562 194.8335 194.7001 194.5267 194.2694 193.9038 193.4247 192.7699 191.923 190.9191 189.7495 188.0577 186.4796 184.9555 184.8961 186.7257 190.4578 193.7001 197.0226 199.9344 201.303 201.9857 202.0395 201.9214 202.2753 202.7846 203.1413 203.529 203.9813 204.3752 204.6942 204.9859 205.3247 205.669 205.9838 206.3613 206.7657 207.1605 207.5274 207.8491 208.2423 208.6566 209.0923 209.5485 210.023 210.5126 211.0138 211.5008 212.0002 212.507 212.986 213.4263 213.8781 214.3362 214.803 215.2807 215.7712 216.2757 216.758 217.1776 217.5648 217.8153 218.1614 218.5367 -9999 -9999 -9999 -9999 -9999 -9999 -9999 -9999 -9999 -9999 -9999 -9999 -9999 -9999 -9999 -9999 -9999 -9999 -9999 -9999 -9999 -9999 -9999 -9999 -9999 -9999 -9999 -9999 -9999 -9999 -9999 -9999 -9999 -9999 -9999 -9999 -9999 -9999 -9999 -9999 -9999 -9999 -9999 -9999 -9999 -9999 -9999 -9999 -9999 -9999 -9999 -9999 -9999 -9999 -9999 -9999 -9999 -9999 -9999 -9999 -9999 -9999 -9999 -9999 -9999 -9999 -9999 -9999 -9999 -9999 -9999 -9999 -9999 -9999 -9999 -9999 -9999 -9999 -9999 -9999 -9999 -9999 -9999 -9999 -9999 -9999 -9999 -9999 -9999 -9999 -9999 -9999 -9999 -9999 -9999 -9999 -9999 -9999 -9999 -9999 -9999 -9999 -9999 -9999 -9999 -9999 -9999 -9999 -9999 -9999 -9999 -9999 -9999 -9999 -9999 -9999 -9999 -9999 -9999 -9999 -9999 -9999 -9999 -9999 -9999 -9999 -9999 -9999 -9999 -9999 -9999 -9999 -9999 -9999 -9999 -9999 -9999 -9999 -9999 -9999 -9999 -9999 -9999 -9999 -9999 -9999 -9999 -9999 -9999 -9999 -9999 -9999 -9999 -9999 -9999 -9999 -9999 -9999 -9999 -9999 -9999 -9999 -9999 -9999 -9999 -9999 -9999 -9999 -9999 -9999 -9999 -9999 -9999 -9999 -9999 -9999 -9999 -9999 -9999 -9999 -9999 -9999 -9999 -9999 -9999 -9999 -9999 -9999 -9999 -9999 -9999 -9999 -9999 -9999 -9999 -9999 -9999 -9999 -9999 -9999 -9999 -9999 -9999
131.2585 131.5075 131.7571 132.008 132.2523 132.4785 132.6906 132.9159 133.1464 133.376 133.6128 133.8548 134.0961 134.3343 134.5739 134.8157 135.0571 135.297 135.542 135.8036 136.0779 136.3767 136.7028 137.0473 137.3964 137.7837 138.2056 138.6461 139.0967 139.5523 140.0107 140.4741 140.9475 141.4384 141.9764 142.5298 143.0664 143.5718 144.0383 144.4635 144.8703 145.2092 145.5223 145.8007 146.0451 146.2671 146.4812 146.6975 146.8734 147.0978 147.385 147.7056 148.0686 148.4839 148.929 149.3856 149.8468 150.3159 150.7946 151.2698 151.7378 152.1986 152.6578 153.1273 153.6184 154.1005 154.6298 155.177 155.7159 156.2066 156.6582 157.0742 157.4669 157.8629 158.2961 158.7519 159.2253 159.7126 160.2043 160.6852 161.1465 161.59 162.0292 162.4895 162.9673 163.4438 163.9414 164.4729 165.0228 165.5837 166.1595 166.7303 167.2882 167.8554 168.4208 168.9785 169.5272 170.0671 170.6048 171.1427 171.679 172.2106 172.7257 173.2341 173.7597 174.2982 174.8302 175.3434 175.8589 176.3589 176.8774 177.3754 177.8281 178.2103 178.5093 178.8288 179.1799 179.5307 179.8874 180.2522 180.6227 180.9925 181.3742 181.7314 181.9426 182.2774 182.4549 182.2637 182.051 181.591 180.8494 179.9043 179.4379 179.3213 179.3983 180.2965 182.7276 185.4831 188.2022 190.0613 191.0515 191.2434 191.809 192.266 192.5227 192.3784 192.5598 192.6983 192.8384 192.9844 193.0748 193.127 193.2018 193.2992 193.4568 193.648 193.8321 193.9662 194.0226 194.0473 194.0708 194.1553 194.2926 194.4311 194.5121 194.4977 194.4064 194.3098 194.1894 194.0251 193.7696 193.3872 192.8765 192.1717 191.2506 190.1693 188.9431 187.096 185.5656 185.0389 185.661 187.6084 190.3867 193.4386 196.3024 199.281 200.642 201.0987 201.0834 200.9978 201.2941 201.6488 202.0488 202.5932 203.1003 203.5222 203.8702 204.2568 204.6424 204.9977 205.356 205.7595 206.1656 206.5734 206.9355 207.3241 207.7232 208.1252 208.5499 209 209.4677 209.9479 210.4245 210.9021 211.3933 211.8874 212.3442 212.7814 213.2265 213.6777 214.1425 214.6153 215.089 215.5645 216.0311 216.4638 216.8146 217.2137 217.6312 218.0047 -9999 -9999 -9999 -9999 -9999 -9999 -9999 -9999 -9999 -9999 -9999 -9999 -9999 -9999 -9999 -9999 -9999 -9999 -9999 -9999 -9999 -9999 -9999 -9999 -9999 -9999 -9999 -9999 -9999 -9999 -9999 -9999 -9999 -9999 -9999 -9999 -9999 -9999 -9999 -9999 -9999 -9999 -9999 -9999 -9999 -9999 -9999 -9999 -9999 -9999 -9999 -9999 -9999 -9999 -9999 -9999 -9999 -9999 -9999 -9999 -9999 -9999 -9999 -9999 -9999 -9999 -9999 -9999 -9999 -9999 -9999 -9999 -9999 -9999 -9999 -9999 -9999 -9999 -9999 -9999 -9999 -9999 -9999 -9999 -9999 -9999 -9999 -9999 -9999 -9999 -9999 -9999 -9999 -9999 -9999 -9999 -9999 -9999 -9999 -9999 -9999 -9999 -9999 -9999 -9999 -9999 -9999 -9999 -9999 -9999 -9999 -9999 -9999 -9999 -9999 -9999 -9999 -9999 -9999 -9999 -9999 -9999 -9999 -9999 -9999 -9999 -9999 -9999 -9999 -9999 -9999 -9999 -9999 -9999 -9999 -9999 -9999 -9999 -9999 -9999 -9999 -9999 -9999 -9999 -9999 -9999 -9999 -9999 -9999 -9999 -9999 -9999 -9999 -9999 -9999 -9999 -9999 -9999 -9999 -9999 -9999 -9999 -9999 -9999 -9999 -9999 -9999 -9999 -9999 -9999 -9999 -9999 -9999 -9999 -9999 -9999 -9999 -9999 -9999 -9999 -9999 -9999 -9999 -9999 -9999 -9999 -9999 -9999 -9999 -9999 -9999 -9999 -9999 -9999 -9999 -9999 -9999 -9999 -9999 -9999 -9999 -9999 -9999
130.8722 131.1187 131.3685 131.617 131.857 132.0789 132.3084 132.5442 132.7773 133.015 133.2587 133.5032 133.744 133.986 134.2319 134.4792 134.7243 134.9657 135.2191 135.4955 135.7958 136.107 136.4207 136.774 137.1676 137.5847 138.02 138.4665 138.9193 139.3755 139.8346 140.2986 140.7795 141.2832 141.8044 142.3307 142.8476 143.3425 143.8005 144.2528 144.687 145.0527 145.2795 145.4335 145.6499 145.8474 146.0383 146.2026 146.3414 146.5551 146.8166 147.113 147.4516 147.8508 148.2896 148.7532 149.2308 149.7147 150.2038 150.6933 151.1788 151.6615 152.1472 152.6536 153.1741 153.7309 154.3288 154.8926 155.4199 155.9161 156.3796 156.8075 157.2149 157.6369 158.0695 158.5063 158.9523 159.4131 159.8898 160.3684 160.8337 161.2856 161.741 162.1899 162.6311 163.0872 163.5802 164.1068 164.6467 165.1844 165.7196 166.2533 166.8019 167.3602 167.9262 168.4902 169.0424 169.5818 170.12 170.657 171.1893 171.7086 172.2163 172.7364 173.2594 173.7783 174.2844 174.7781 175.2633 175.7484 176.2363 176.7125 177.1537 177.5177 177.8474 178.2076 178.5622 178.9178 179.2785 179.6424 180.0007 180.3522 180.7231 180.9411 181.1295 181.4215 181.5387 181.3189 180.9415 180.289 179.439 178.0469 177.8986 178.5815 179.4977 181.2304 184.3735 186.4944 188.4393 189.8792 190.6619 190.7419 191.1271 191.6001 191.7791 192.0054 192.1355 192.2742 192.3754 192.5052 192.5772 192.6187 192.6825 192.7748 192.9462 193.1534 193.3394 193.4495 193.4817 193.5141 193.5357 193.6067 193.7449 193.888 193.9709 193.9526 193.8675 193.806 193.7472 193.5868 193.321 192.9128 192.3237 191.5691 190.6014 189.4499 188.0758 186.2444 184.9945 184.8206 185.7331 187.7616 190.2153 193.0408 195.8697 198.3221 200.0378 200.6823 200.3002 200.17 200.4352 200.7456 201.1623 201.6528 202.1433 202.5524 203.032 203.5301 203.9384 204.3308 204.741 205.1604 205.5764 205.9985 206.4058 206.812 207.2123 207.6301 208.0619 208.4977 208.9466 209.4012 209.8631 210.3336 210.8123 211.2873 211.729 212.168 212.6073 213.0569 213.5131 213.9799 214.4494 214.9135 215.369 215.8071 216.2561 216.725 217.1776 217.5252 217.7928 -9999 -9999 -9999 -9999 -9999 -9999 -9999 -9999 -9999 -9999 -9999 -9999 -9999 -9999 -9999 -9999 -9999 -9999 -9999 -9999 -9999 -9999 -9999 -9999 -9999 -9999 -9999 -9999 -9999 -9999 -9999 -9999 -9999 -9999 -9999 -9999 -9999 -9999 -9999 -9999 -9999 -9999 -9999 -9999 -9999 -9999 -9999 -9999 -9999 -9999 -9999 -9999 -9999 -9999 -9999 -9999 -9999 -9999 -9999 -9999 -9999 -9999 -9999 -9999 -9999 -9999 -9999 -9999 -9999 -9999 -9999 -9999 -9999 -9999 -9999 -9999 -9999 -9999 -9999 -9999 -9999 -9999 -9999 -9999 -9999 -9999 -9999 -9999 -9999 -9999 -9999 -9999 -9999 -9999 -9999 -9999 -9999 -9999 -9999 -9999 -9999 -9999 -9999 -9999 -9999 -9999 -9999 -9999 -9999 -9999 -9999 -9999 -9999 -9999 -9999 -9999 -9999 -9999 -9999 -9999 -9999 -9999 -9999 -9999 -9999 -9999 -9999 -9999 -9999 -9999 -9999 -9999 -9999 -9999 -9999 -9999 -9999 -9999 -9999 -9999 -9999 -9999 -9999 -9999 -9999 -9999 -9999 -9999 -9999 -9999 -9999 -9999 -9999 -9999 -9999 -9999 -9999 -9999 -9999 -9999 -9999 -9999 -9999 -9999 -9999 -9999 -9999 -9999 -9999 -9999 -9999 -9999 -9999 -9999 -9999 -9999 -9999 -9999 -9999 -9999 -9999 -9999 -9999 -9999 -9999 -9999 -9999 -9999 -9999 -9999 -9999 -9999 -9999 -9999 -9999 -9999 -9999 -9999 -9999 -9999 -9999 -9999
130.4962 130.7411 130.988 131.2325 131.4665 131.6995 131.939 132.1767 132.4149 132.6595 132.9061 133.149 133.3917 133.6407 133.8938 134.1411 134.3896 134.637 134.9071 135.1914 135.4759 135.7917 136.157 136.544 136.9533 137.3802 137.8201 138.2694 138.7261 139.1878 139.6519 140.1173 140.5898 141.0775 141.5791 142.0879 142.5918 143.0708 143.5672 144.0489 144.4447 144.7364 144.9672 145.13 145.2074 145.38 145.5429 145.6548 145.7764 145.9804 146.2225 146.4851 146.8124 147.2002 147.639 148.1122 148.5783 149.1055 149.6175 150.1255 150.6323 151.1414 151.6573 152.2 152.765 153.4008 154.0092 154.5623 155.0886 155.6007 156.0823 156.5314 156.9706 157.4064 157.8277 158.2432 158.6656 159.1126 159.5787 160.0502 160.5214 160.9875 161.4363 161.872 162.3062 162.7616 163.2547 163.7648 164.279 164.7915 165.3021 165.8213 166.3563 166.9053 167.4612 168.0151 168.5602 169.0964 169.6463 170.1815 170.7073 171.2277 171.7495 172.2662 172.7737 173.266 173.7481 174.2299 174.7039 175.1676 175.6269 176.0789 176.5042 176.8667 177.2408 177.5951 177.9548 178.3149 178.6792 179.0419 179.3897 179.7386 180.0385 180.1583 180.3212 180.5256 180.5462 180.2826 179.7368 178.8525 177.2164 175.8549 176.3177 177.7724 179.5594 181.5578 184.8717 186.6842 187.9959 188.8228 189.551 190.0972 190.581 191.0633 191.3924 191.5875 191.7329 191.8871 191.9821 192.1056 192.155 192.2142 192.2621 192.3491 192.5243 192.7334 192.8995 192.9544 193.0049 193.0368 193.0655 193.1054 193.2278 193.3659 193.4451 193.4185 193.3548 193.3213 193.266 193.1727 192.8814 192.4352 191.7904 190.9278 189.9415 188.657 187.0088 185.6415 184.7305 184.3645 184.9376 186.6736 189.7084 192.9062 195.5705 197.8824 199.4603 200.2408 199.8946 199.4575 199.731 200.0169 200.3755 200.8018 201.2316 201.7189 202.2802 202.7749 203.2137 203.6756 204.1377 204.5736 205.0067 205.4457 205.8806 206.3143 206.7498 207.1848 207.61 208.032 208.4491 208.8726 209.3242 209.7873 210.2514 210.7063 211.1461 211.5836 212.025 212.4692 212.9162 213.3765 213.8379 214.2951 214.7516 215.2357 215.752 216.2724 216.7405 217.0706 217.369 -9999 -9999 -9999 -9999 -9999 -9999 -9999 -9999 -9999 -9999 -9999 -9999 -9999 -9999 -9999 -9999 -9999 -9999 -9999 -9999 -9999 -9999 -9999 -9999 -9999 -9999 -9999 -9999 -9999 -9999 -9999 -9999 -9999 -9999 -9999 -9999 -9999 -9999 -9999 -9999 -9999 -9999 -9999 -9999 -9999 -9999 -9999 -9999 -9999 -9999 -9999 -9999 -9999 -9999 -9999 -9999 -9999 -9999 -9999 -9999 -9999 -9999 -9999 -9999 -9999 -9999 -9999 -9999 -9999 -9999 -9999 -9999 -9999 -9999 -9999 -9999 -9999 -9999 -9999 -9999 -9999 -9999 -9999 -9999 -9999 -9999 -9999 -9999 -9999 -9999 -9999 -9999 -9999 -9999 -9999 -9999 -9999 -9999 -9999 -9999 -9999 -9999 -9999 -9999 -9999 -9999 -9999 -9999 -9999 -9999 -9999 -9999 -9999 -9999 -9999 -9999 -9999 -9999 -9999 -9999 -9999 -9999 -9999 -9999 -9999 -9999 -9999 -9999 -9999 -9999 -9999 -9999 -9999 -9999 -9999 -9999 -9999 -9999 -9999 -9999 -9999 -9999 -9999 -9999 -9999 -9999 -9999 -9999 -9999 -9999 -9999 -9999 -9999 -9999 -9999 -9999 -9999 -9999 -9999 -9999 -9999 -9999 -9999 -9999 -9999 -9999 -9999 -9999 -9999 -9999 -9999 -9999 -9999 -9999 -9999 -9999 -9999 -9999 -9999 -9999 -9999 -9999 -9999 -9999 -9999 -9999 -9999 -9999 -9999 -9999 -9999 -9999 -9999 -9999 -9999 -9999 -9999 -9999 -9999 -9999 -9999 -9999
130.129 130.3724 130.6159 130.8564 131.0928 131.3341 131.5752 131.8148 132.0592 132.3065 132.5508 132.7939 133.0424 133.2991 133.5495 133.8011 134.0489 134.3126 134.5907 134.8599 135.1742 135.535 135.9132 136.3097 136.7256 137.1591 137.6071 138.0655 138.5304 138.9955 139.4596 139.9214 140.3819 140.8504 141.3322 141.8205 142.2981 142.8136 143.3192 143.7406 144.0726 144.3443 144.5565 144.6778 144.7584 144.8799 145.0038 145.0771 145.1885 145.3829 145.5909 145.8433 146.1615 146.5434 146.9223 147.3612 147.9094 148.4651 149.0111 149.5645 150.0997 150.6376 151.1845 151.7538 152.3896 153.023 153.6274 154.2033 154.7477 155.2676 155.767 156.2453 156.7096 157.1448 157.5563 157.9569 158.3734 158.8224 159.2712 159.7349 160.2073 160.6744 161.1263 161.5644 162.0033 162.4684 162.9498 163.432 163.9143 164.4061 164.9053 165.4091 165.9257 166.4565 166.9967 167.5385 168.0752 168.6139 169.178 169.7136 170.2418 170.7696 171.2916 171.8003 172.2877 172.7675 173.2438 173.7117 174.1706 174.6203 175.06 175.4901 175.8979 176.2856 176.6444 177.0043 177.3653 177.7294 178.0941 178.4449 178.7913 179.1218 179.3331 179.3984 179.4105 179.55 179.5248 179.1803 178.2697 177.1453 175.514 174.8801 175.8732 178.0297 180.0857 182.3271 185.1427 186.6869 187.7753 188.481 189.0353 189.6233 190.194 190.6265 190.9271 191.1445 191.3463 191.5097 191.624 191.7433 191.7959 191.8644 191.907 191.9902 192.1585 192.3529 192.4734 192.5057 192.5691 192.6034 192.6418 192.6575 192.7438 192.8645 192.933 192.8933 192.855 192.7936 192.7327 192.6429 192.4014 191.906 191.2351 190.3192 189.2223 187.7037 186.1307 185.1585 184.4514 184.053 184.6078 186.2841 189.2957 192.6789 195.2445 197.3615 198.8958 199.3299 198.7388 198.8218 199.0746 199.3652 199.7097 200.097 200.5184 201.0251 201.5654 202.0376 202.5319 203.0605 203.5359 203.9989 204.4564 204.9122 205.3798 205.8489 206.3093 206.7521 207.1743 207.5756 207.9611 208.3798 208.8186 209.2623 209.7047 210.1446 210.5849 211.0262 211.4663 211.9014 212.3438 212.7939 213.241 213.6919 214.1675 214.6971 215.2548 215.7974 216.2664 216.6176 216.9666 -9999 -9999 -9999 -9999 -9999 -9999 -9999 -9999 -9999 -9999 -9999 -9999 -9999 -9999 -9999 -9999 -9999 -9999 -9999 -9999 -9999 -9999 -9999 -9999 -9999 -9999 -9999 -9999 -9999 -9999 -9999 -9999 -9999 -9999 -9999 -9999 -9999 -9999 -9999 -9999 -9999 -9999 -9999 -9999 -9999 -9999 -9999 -9999 -9999 -9999 -9999 -9999 -9999 -9999 -9999 -9999 -9999 -9999 -9999 -9999 -9999 -9999 -9999 -9999 -9999 -9999 -9999 -9999 -9999 -9999 -9999 -9999 -9999 -9999 -9999 -9999 -9999 -9999 -9999 -9999 -9999 -9999 -9999 -9999 -9999 -9999 -9999 -9999 -9999 -9999 -9999 -9999 -9999 -9999 -9999 -9999 -9999 -9999 -9999 -9999 -9999 -9999 -9999 -9999 -9999 -9999 -9999 -9999 -9999 -9999 -9999 -9999 -9999 -9999 -9999 -9999 -9999 -9999 -9999 -9999 -9999 -9999 -9999 -9999 -9999 -9999 -9999 -9999 -9999 -9999 -9999 -9999 -9999 -9999 -9999 -9999 -9999 -9999 -9999 -9999 -9999 -9999 -9999 -9999 -9999 -9999 -9999 -9999 -9999 -9999 -9999 -9999 -9999 -9999 -9999 -9999 -9999 -9999 -9999 -9999 -9999 -9999 -9999 -9999 -9999 -9999 -9999 -9999 -9999 -9999 -9999 -9999 -9999 -9999 -9999 -9999 -9999 -9999 -9999 -9999 -9999 -9999 -9999 -9999 -9999 -9999 -9999 -9999 -9999 -9999 -9999 -9999 -9999 -9999 -9999 -9999 -9999 -9999 -9999 -9999 -9999 -9999
129.7684 130.0115 130.252 130.4911 130.7327 130.9756 131.2173 131.4607 131.7074 131.952 132.1953 132.4413 132.6978 132.9541 133.1856 133.4509 133.7091 133.99 134.2497 134.5545 134.9115 135.2834 135.6722 136.0801 136.5063 136.9485 137.4039 137.8651 138.3283 138.7918 139.2528 139.7092 140.1601 140.6122 141.0692 141.5244 142.0217 142.5039 142.9315 143.3057 143.6276 143.8831 144.0686 144.1634 144.2315 144.3447 144.4297 144.4774 144.5868 144.7648 144.943 145.1968 145.4864 145.78 146.1755 146.6693 147.237 147.8032 148.3864 148.9931 149.5809 150.1497 150.7226 151.3267 151.9472 152.5764 153.2016 153.8068 154.3796 154.918 155.4355 155.9387 156.4113 156.8484 157.2579 157.6641 158.1011 158.5308 158.9713 159.4272 159.8927 160.3621 160.8208 161.2682 161.7208 162.1878 162.648 163.1019 163.565 164.0434 164.5231 165.0081 165.5035 166.0141 166.5369 167.0648 167.591 168.1406 168.7088 169.249 169.783 170.3102 170.8284 171.3317 171.8234 172.3047 172.7725 173.2273 173.6692 174.1006 174.5249 174.9424 175.346 175.7204 176.0772 176.4404 176.8031 177.16 177.5091 177.874 178.2146 178.5048 178.6457 178.621 178.4353 178.2806 178.292 177.9858 176.8673 175.756 174.8871 174.6752 176.4418 178.837 180.916 183.3861 185.2737 186.6067 187.6074 188.2805 188.7452 189.269 189.7405 190.1111 190.4173 190.6856 190.9479 191.119 191.2624 191.3732 191.4565 191.5242 191.5747 191.6566 191.8085 191.971 192.0278 192.094 192.1504 192.1928 192.2391 192.248 192.2889 192.3782 192.4281 192.3816 192.3492 192.2228 192.1848 191.9898 191.7569 191.2914 190.5985 189.7112 188.3161 186.6627 185.3518 184.6014 184.1729 183.9709 184.5327 186.661 189.486 192.42 194.8978 196.8698 198.1994 198.207 198.2095 198.24 198.4864 198.7631 199.0858 199.4681 199.9214 200.4176 200.9057 201.3889 201.9231 202.4612 202.9448 203.4346 203.9169 204.4025 204.8941 205.3852 205.8587 206.3073 206.7266 207.1116 207.5011 207.9184 208.3381 208.7522 209.1682 209.5993 210.0393 210.4805 210.9151 211.3433 211.7789 212.2136 212.6553 213.1052 213.6169 214.1757 214.737 215.2656 215.7286 216.1458 216.5445 -9999 -9999 -9999 -9999 -9999 -9999 -9999 -9999 -9999 -9999 -9999 -9999 -9999 -9999 -9999 -9999 -9999 -9999 -9999 -9999 -9999 -9999 -9999 -9999 -9999 -9999 -9999 -9999 -9999 -9999 -9999 -9999 -9999 -9999 -9999 -9999 -9999 -9999 -9999 -9999 -9999 -9999 -9999 -9999 -9999 -9999 -9999 -9999 -9999 -9999 -9999 -9999 -9999 -9999 -9999 -9999 -9999 -9999 -9999 -9999 -9999 -9999 -9999 -9999 -9999 -9999 -9999 -9999 -9999 -9999 -9999 -9999 -9999 -9999 -9999 -9999 -9999 -9999 -9999 -9999 -9999 -9999 -9999 -9999 -9999 -9999 -9999 -9999 -9999 -9999 -9999 -9999 -9999 -9999 -9999 -9999 -9999 -9999 -9999 -9999 -9999 -9999 -9999 -9999 -9999 -9999 -9999 -9999 -9999 -9999 -9999 -9999 -9999 -9999 -9999 -9999 -9999 -9999 -9999 -9999 -9999 -9999 -9999 -9999 -9999 -9999 -9999 -9999 -9999 -9999 -9999 -9999 -9999 -9999 -9999 -9999 -9999 -9999 -9999 -9999 -9999 -9999 -9999 -9999 -9999 -9999 -9999 -9999 -9999 -9999 -9999 -9999 -9999 -9999 -9999 -9999 -9999 -9999 -9999 -9999 -9999 -9999 -9999 -9999 -9999 -9999 -9999 -9999 -9999 -9999 -9999 -9999 -9999 -9999 -9999 -9999 -9999 -9999 -9999 -9999 -9999 -9999 -9999 -9999 -9999 -9999 -9999 -9999 -9999 -9999 -9999 -9999 -9999 -9999 -9999 -9999 -9999 -9999 -9999 -9999 -9999 -9999
129.4117 129.6554 129.8951 130.1364 130.3802 130.6235 130.8663 131.1115 131.3557 131.5987 131.8429 132.0948 132.3542 132.5767 132.8367 133.099 133.3836 133.6406 133.9373 134.2928 134.666 135.053 135.4541 135.871 136.3035 136.7486 137.2012 137.6603 138.131 138.6029 139.0463 139.4887 139.9294 140.3604 140.7848 141.2266 141.6632 142.0783 142.4657 142.818 143.117 143.3477 143.495 143.5756 143.6469 143.7317 143.7769 143.8167 143.9437 144.0967 144.2757 144.5482 144.7907 145.1137 145.5316 146.0177 146.5801 147.1494 147.7665 148.4218 149.0657 149.6772 150.2675 150.8698 151.4955 152.1385 152.7831 153.4105 154.0053 154.5623 155.0927 155.6057 156.0866 156.5314 156.9541 157.3887 157.8196 158.2457 158.6824 159.1266 159.5825 160.0509 160.5187 160.9796 161.4456 161.902 162.344 162.7893 163.2477 163.7038 164.1599 164.6223 165.0958 165.5847 166.0886 166.6012 167.115 167.6771 168.2323 168.7854 169.327 169.8533 170.3735 170.8856 171.3841 171.8648 172.3265 172.7696 173.1936 173.6036 174.0078 174.4151 174.8111 175.1836 175.5467 175.9078 176.2523 176.5967 176.9564 177.3384 177.6608 177.8986 177.9463 177.821 177.6193 177.1665 176.9356 176.7272 175.8073 175.0212 174.608 175.1011 177.0995 179.7158 181.7826 183.8896 185.3772 186.6018 187.4072 187.8504 188.3154 188.8378 189.2407 189.5817 189.9023 190.2188 190.5079 190.6962 190.8638 190.9861 191.087 191.1594 191.2236 191.3066 191.4358 191.5506 191.599 191.6808 191.7292 191.7805 191.831 191.8422 191.8539 191.8979 191.9221 191.8755 191.8198 191.6154 191.5319 191.2905 190.9678 190.5321 189.8746 188.9977 187.6398 186.0119 184.7466 183.7218 183.7405 183.9779 184.6851 186.8705 189.5108 192.0038 194.5063 196.3366 197.3447 197.7831 197.7257 197.6942 197.9664 198.223 198.5266 198.931 199.3974 199.8689 200.3301 200.822 201.3566 201.8723 202.3742 202.8804 203.3926 203.9081 204.4166 204.9094 205.3846 205.8394 206.2597 206.6528 207.0594 207.4671 207.8573 208.2432 208.6503 209.0747 209.506 209.937 210.3622 210.7844 211.2092 211.6395 212.0762 212.542 213.0793 213.6417 214.1848 214.6847 215.1578 215.6481 216.0697 -9999 -9999 -9999 -9999 -9999 -9999 -9999 -9999 -9999 -9999 -9999 -9999 -9999 -9999 -9999 -9999 -9999 -9999 -9999 -9999 -9999 -9999 -9999 -9999 -9999 -9999 -9999 -9999 -9999 -9999 -9999 -9999 -9999 -9999 -9999 -9999 -9999 -9999 -9999 -9999 -9999 -9999 -9999 -9999 -9999 -9999 -9999 -9999 -9999 -9999 -9999 -9999 -9999 -9999 -9999 -9999 -9999 -9999 -9999 -9999 -9999 -9999 -9999 -9999 -9999 -9999 -9999 -9999 -9999 -9999 -9999 -9999 -9999 -9999 -9999 -9999 -9999 -9999 -9999 -9999 -9999 -9999 -9999 -9999 -9999 -9999 -9999 -9999 -9999 -9999 -9999 -9999 -9999 -9999 -9999 -9999 -9999 -9999 -9999 -9999 -9999 -9999 -9999 -9999 -9999 -9999 -9999 -9999 -9999 -9999 -9999 -9999 -9999 -9999 -9999 -9999 -9999 -9999 -9999 -9999 -9999 -9999 -9999 -9999 -9999 -9999 -9999 -9999 -9999 -9999 -9999 -9999 -9999 -9999 -9999 -9999 -9999 -9999 -9999 -9999 -9999 -9999 -9999 -9999 -9999 -9999 -9999 -9999 -9999 -9999 -9999 -9999 -9999 -9999 -9999 -9999 -9999 -9999 -9999 -9999 -9999 -9999 -9999 -9999 -9999 -9999 -9999 -9999 -9999 -9999 -9999 -9999 -9999 -9999 -9999 -9999 -9999 -9999 -9999 -9999 -9999 -9999 -9999 -9999 -9999 -9999 -9999 -9999 -9999 -9999 -9999 -9999 -9999 -9999 -9999 -9999 -9999 -9999 -9999 -9999 -9999 -9999
129.0569 129.3009 129.5434 129.7892 130.0344 130.2775 130.5211 130.7645 131.0069 131.2496 131.4963 131.7537 131.9804 132.2035 132.4853 132.7697 133.0345 133.329 133.6831 134.0568 134.4448 134.8442 135.254 135.6755 136.1087 136.5618 137.0378 137.5212 137.9726 138.3993 138.828 139.2552 139.676 140.0845 140.4823 140.8743 141.2528 141.6187 141.9695 142.2859 142.5447 142.7492 142.8569 142.9318 143.0168 143.04 143.0472 143.0914 143.2373 143.3614 143.6025 143.876 144.1272 144.5121 144.9435 145.42 145.967 146.538 147.1789 147.8681 148.5588 149.2138 149.8248 150.433 151.0648 151.7156 152.3703 153.0109 153.6227 154.2001 154.7433 155.2595 155.7489 156.2092 156.6582 157.1085 157.5399 157.9701 158.3988 158.8335 159.2808 159.7439 160.2186 160.6924 161.1598 161.6106 162.0587 162.5091 162.951 163.3845 163.8165 164.2548 164.7063 165.1741 165.659 166.1556 166.6593 167.2117 167.7649 168.3245 168.8735 169.4107 169.9369 170.4536 170.9543 171.4342 171.8931 172.3242 172.729 173.1218 173.5189 173.9214 174.307 174.6789 175.0418 175.3818 175.7201 176.0723 176.4483 176.833 177.1247 177.2994 177.2412 177.044 176.8216 176.3995 175.9521 175.6914 175.1399 174.5812 174.5276 175.7888 178.6444 180.6167 182.3446 183.9421 185.2705 186.2868 186.8828 187.3281 187.9149 188.3658 188.7406 189.0877 189.4307 189.7589 190.0349 190.2382 190.416 190.5536 190.6615 190.7446 190.823 190.9081 191.0131 191.084 191.1605 191.2388 191.2849 191.3441 191.3951 191.4105 191.4125 191.4142 191.4071 191.3574 191.2532 190.9736 190.7977 190.5338 190.1255 189.6595 189.0173 188.1051 186.7939 185.3244 183.8897 182.4961 182.6379 183.6419 184.7307 186.7 189.2453 191.7516 194.0827 195.7438 196.8465 197.136 197.3013 197.2183 197.4929 197.7414 198.077 198.4912 198.9081 199.3358 199.8075 200.3048 200.8215 201.32 201.8273 202.3499 202.8846 203.4178 203.9345 204.426 204.899 205.3562 205.7845 206.1976 206.6092 206.9948 207.3661 207.7478 208.1537 208.5694 208.9853 209.3975 209.8091 210.2233 210.641 211.0655 211.4975 211.9839 212.5172 213.0554 213.5556 214.0576 214.5992 215.1409 215.5274 -9999 -9999 -9999 -9999 -9999 -9999 -9999 -9999 -9999 -9999 -9999 -9999 -9999 -9999 -9999 -9999 -9999 -9999 -9999 -9999 -9999 -9999 -9999 -9999 -9999 -9999 -9999 -9999 -9999 -9999 -9999 -9999 -9999 -9999 -9999 -9999 -9999 -9999 -9999 -9999 -9999 -9999 -9999 -9999 -9999 -9999 -9999 -9999 -9999 -9999 -9999 -9999 -9999 -9999 -9999 -9999 -9999 -9999 -9999 -9999 -9999 -9999 -9999 -9999 -9999 -9999 -9999 -9999 -9999 -9999 -9999 -9999 -9999 -9999 -9999 -9999 -9999 -9999 -9999 -9999 -9999 -9999 -9999 -9999 -9999 -9999 -9999 -9999 -9999 -9999 -9999 -9999 -9999 -9999 -9999 -9999 -9999 -9999 -9999 -9999 -9999 -9999 -9999 -9999 -9999 -9999 -9999 -9999 -9999 -9999 -9999 -9999 -9999 -9999 -9999 -9999 -9999 -9999 -9999 -9999 -9999 -9999 -9999 -9999 -9999 -9999 -9999 -9999 -9999 -9999 -9999 -9999 -9999 -9999 -9999 -9999 -9999 -9999 -9999 -9999 -9999 -9999 -9999 -9999 -9999 -9999 -9999 -9999 -9999 -9999 -9999 -9999 -9999 -9999 -9999 -9999 -9999 -9999 -9999 -9999 -9999 -9999 -9999 -9999 -9999 -9999 -9999 -9999 -9999 -9999 -9999 -9999 -9999 -9999 -9999 -9999 -9999 -9999 -9999 -9999 -9999 -9999 -9999 -9999 -9999 -9999 -9999 -9999 -9999 -9999 -9999 -9999 -9999 -9999 -9999 -9999 -9999 -9999 -9999 -9999 -9999 -9999
128.7019 128.9457 129.1959 129.4467 129.6931 129.9365 130.1794 130.4214 130.6631 130.9068 131.158 131.3927 131.5996 131.866 132.1516 132.4331 132.7322 133.0848 133.4572 133.8432 134.2397 134.6454 135.0645 135.5044 135.9686 136.4486 136.9175 137.3438 137.7624 138.1774 138.5886 139.0075 139.403 139.7873 140.1571 140.5002 140.8276 141.1503 141.4539 141.7251 141.9438 142.1174 142.1934 142.2664 142.3622 142.3063 142.2835 142.34 142.4756 142.6388 142.9169 143.1853 143.5017 143.9383 144.3979 144.8856 145.4196 145.9936 146.6411 147.3522 148.0996 148.7527 149.3944 150.016 150.6451 151.2934 151.9494 152.5981 153.2259 153.8213 154.3813 154.9073 155.4076 155.8888 156.3649 156.8208 157.2629 157.6924 158.1171 158.5462 158.9881 159.4469 159.9209 160.3992 160.8719 161.3402 161.8006 162.2422 162.6672 163.0805 163.4903 163.9061 164.336 164.785 165.2525 165.7339 166.2335 166.7602 167.3093 167.8664 168.4259 168.9778 169.5121 170.0257 170.523 171.0041 171.4578 171.8798 172.28 172.6749 173.0793 173.4701 173.8389 174.199 174.5462 174.8814 175.2307 175.5909 175.9836 176.3473 176.6028 176.6871 176.5679 176.3458 176.1094 175.8182 175.4002 175.1058 174.7559 174.3977 175.0249 177.2973 179.7479 181.2536 182.5831 183.8085 184.9213 185.7897 186.3512 186.9787 187.4958 187.9277 188.3175 188.6458 188.99 189.309 189.5609 189.7681 189.9404 190.0756 190.1843 190.2757 190.3629 190.4491 190.5328 190.6047 190.6861 190.7546 190.8038 190.8687 190.9177 190.9351 190.9368 190.918 190.8775 190.813 190.6441 190.3025 190.0163 189.7137 189.2892 188.6974 187.9473 187.0467 185.8974 184.6445 182.7508 181.2611 181.3493 182.7471 184.4448 186.301 189.0441 191.3924 193.5846 195.1422 196.1618 196.6285 196.7485 196.7633 197.0387 197.3296 197.6961 198.0357 198.4018 198.8368 199.3215 199.8203 200.3143 200.8056 201.3167 201.8484 202.3876 202.9196 203.4364 203.9409 204.4165 204.87 205.3043 205.7286 206.1301 206.5076 206.8793 207.2679 207.6696 208.0696 208.4625 208.8542 209.2575 209.6605 210.0689 210.4866 210.9199 211.3911 211.8628 212.3366 212.8523 213.3602 214.0067 214.6019 214.9292 -9999 -9999 -9999 -9999 -9999 -9999 -9999 -9999 -9999 -9999 -9999 -9999 -9999 -9999 -9999 -9999 -9999 -9999 -9999 -9999 -9999 -9999 -9999 -9999 -9999 -9999 -9999 -9999 -9999 -9999 -9999 -9999 -9999 -9999 -9999 -9999 -9999 -9999 -9999 -9999 -9999 -9999 -9999 -9999 -9999 -9999 -9999 -9999 -9999 -9999 -9999 -9999 -9999 -9999 -9999 -9999 -9999 -9999 -9999 -9999 -9999 -9999 -9999 -9999 -9999 -9999 -9999 -9999 -9999 -9999 -9999 -9999 -9999 -9999 -9999 -9999 -9999 -9999 -9999 -9999 -9999 -9999 -9999 -9999 -9999 -9999 -9999 -9999 -9999 -9999 -9999 -9999 -9999 -9999 -9999 -9999 -9999 -9999 -9999 -9999 -9999 -9999 -9999 -9999 -9999 -9999 -9999 -9999 -9999 -9999 -9999 -9999 -9999 -9999 -9999 -9999 -9999 -9999 -9999 -9999 -9999 -9999 -9999 -9999 -9999 -9999 -9999 -9999 -9999 -9999 -9999 -9999 -9999 -9999 -9999 -9999 -9999 -9999 -9999 -9999 -9999 -9999 -9999 -9999 -9999 -9999 -9999 -9999 -9999 -9999 -9999 -9999 -9999 -9999 -9999 -9999 -9999 -9999 -9999 -9999 -9999 -9999 -9999 -9999 -9999 -9999 -9999 -9999 -9999 -9999 -9999 -9999 -9999 -9999 -9999 -9999 -9999 -9999 -9999 -9999 -9999 -9999 -9999 -9999 -9999 -9999 -9999 -9999 -9999 -9999 -9999 -9999 -9999 -9999 -9999 -9999 -9999 -9999 -9999 -9999 -9999 -9999
128.3422 128.594 128.8511 129.1048 129.3531 129.5985 129.8416 130.0833 130.3255 130.5716 130.8124 131.0211 131.2478 131.5428 131.8376 132.1455 132.4964 132.8651 133.2454 133.6373 134.0511 134.482 134.926 135.3825 135.8444 136.2862 136.7082 137.1231 137.5504 137.9872 138.3826 138.7679 139.124 139.4696 139.8009 140.1105 140.403 140.6798 140.936 141.1609 141.3481 141.4898 141.5455 141.6195 141.6896 141.5859 141.5471 141.619 141.7345 141.9567 142.2486 142.5233 142.9333 143.3903 143.8772 144.3939 144.9381 145.5157 146.1667 146.9376 147.6277 148.3053 148.9749 149.6232 150.2525 150.8928 151.5423 152.1889 152.8204 153.4297 154.0088 154.5535 155.0685 155.5698 156.0584 156.5267 156.9739 157.4054 157.8305 158.2604 158.7029 159.1601 159.6317 160.1179 160.6084 161.0898 161.5452 161.9772 162.3887 162.7854 163.1765 163.5726 163.9833 164.4152 164.8689 165.338 165.8221 166.3315 166.8666 167.424 167.9906 168.5499 169.0877 169.5983 170.0907 170.5703 171.0231 171.4498 171.8614 172.2744 172.6728 173.035 173.3842 173.738 174.0714 174.4186 174.7783 175.1618 175.5494 175.8704 176.077 176.0982 175.9706 175.7719 175.5715 175.3897 175.0952 174.7783 174.5043 174.6118 176.1264 179.2575 180.8987 182.1266 182.9944 183.735 184.5677 185.3678 186.0473 186.6457 187.1421 187.5147 187.8455 188.2202 188.5611 188.8607 189.1023 189.3081 189.4654 189.5892 189.691 189.7785 189.8638 189.9471 190.0235 190.0992 190.1729 190.2321 190.285 190.3527 190.398 190.4143 190.418 190.3945 190.3331 190.2361 190.0006 189.618 189.1934 188.7638 188.2853 187.7001 186.962 186.0626 185.0477 183.6933 181.6998 180.3362 180.4162 181.8038 184.0466 186.2225 188.8979 190.9686 192.8687 194.4471 195.4665 196.0949 196.1206 196.2824 196.5902 196.9325 197.2288 197.5503 197.9301 198.3814 198.8637 199.3466 199.8303 200.3254 200.8356 201.3584 201.8861 202.4151 202.9501 203.4535 203.9333 204.3889 204.8246 205.2426 205.6376 206.0173 206.3988 206.7905 207.1766 207.5489 207.9193 208.308 208.6987 209.0917 209.4934 209.9037 210.3133 210.7232 211.1484 211.6149 212.096 212.6318 213.3426 213.9378 214.2671 -9999 -9999 -9999 -9999 -9999 -9999 -9999 -9999 -9999 -9999 -9999 -9999 -9999 -9999 -9999 -9999 -9999 -9999 -9999 -9999 -9999 -9999 -9999 -9999 -9999 -9999 -9999 -9999 -9999 -9999 -9999 -9999 -9999 -9999 -9999 -9999 -9999 -9999 -9999 -9999 -9999 -9999 -9999 -9999 -9999 -9999 -9999 -9999 -9999 -9999 -9999 -9999 -9999 -9999 -9999 -9999 -9999 -9999 -9999 -9999 -9999 -9999 -9999 -9999 -9999 -9999 -9999 -9999 -9999 -9999 -9999 -9999 -9999 -9999 -9999 -9999 -9999 -9999 -9999 -9999 -9999 -9999 -9999 -9999 -9999 -9999 -9999 -9999 -9999 -9999 -9999 -9999 -9999 -9999 -9999 -9999 -9999 -9999 -9999 -9999 -9999 -9999 -9999 -9999 -9999 -9999 -9999 -9999 -9999 -9999 -9999 -9999 -9999 -9999 -9999 -9999 -9999 -9999 -9999 -9999 -9999 -9999 -9999 -9999 -9999 -9999 -9999 -9999 -9999 -9999 -9999 -9999 -9999 -9999 -9999 -9999 -9999 -9999 -9999 -9999 -9999 -9999 -9999 -9999 -9999 -9999 -9999 -9999 -9999 -9999 -9999 -9999 -9999 -9999 -9999 -9999 -9999 -9999 -9999 -9999 -9999 -9999 -9999 -9999 -9999 -9999 -9999 -9999 -9999 -9999 -9999 -9999 -9999 -9999 -9999 -9999 -9999 -9999 -9999 -9999 -9999 -9999 -9999 -9999 -9999 -9999 -9999 -9999 -9999 -9999 -9999 -9999 -9999 -9999 -9999 -9999 -9999 -9999 -9999 -9999 -9999 -9999
127.9868 128.2465 128.5065 128.7619 129.013 129.2606 129.5059 129.7498 129.9946 130.2389 130.4568 130.6699 130.9439 131.2491 131.5664 131.9139 132.2747 132.6557 133.0664 133.4932 133.9252 134.3555 134.7817 135.2074 135.6326 136.0643 136.5119 136.9696 137.4055 137.7889 138.1866 138.5221 138.8323 139.1312 139.4194 139.7063 139.9694 140.2092 140.4295 140.6195 140.782 140.8985 140.9471 141.0254 141.0509 140.9329 140.8951 140.9779 141.1151 141.3163 141.621 141.9629 142.4016 142.8749 143.3846 143.9252 144.497 145.1142 145.8151 146.5184 147.1964 147.8882 148.5764 149.2449 149.8874 150.5196 151.1556 151.7937 152.4292 153.0508 153.6461 154.2068 154.7345 155.2439 155.7406 156.2178 156.6756 157.1193 157.5561 157.9924 158.4317 158.892 159.3736 159.8652 160.3573 160.832 161.2816 161.707 162.1084 162.492 162.868 163.2479 163.6427 164.06 164.502 164.9631 165.4354 165.9317 166.4585 167.0095 167.5707 168.1259 168.6614 169.1719 169.6636 170.1393 170.5985 171.0414 171.4751 171.8872 172.2571 172.6069 172.9638 173.2987 173.6405 174.0032 174.3898 174.7772 175.125 175.3949 175.554 175.5703 175.4765 175.3337 175.1982 175.0877 174.9185 174.45 174.4265 175.1075 177.9165 180.3952 181.8343 182.8418 183.4309 183.8652 184.418 185.1319 185.778 186.2789 186.6701 187.0442 187.447 187.8038 188.1361 188.4159 188.6609 188.8562 188.9996 189.1132 189.1981 189.2739 189.3569 189.4382 189.5106 189.5775 189.6405 189.6927 189.7433 189.8119 189.8532 189.8669 189.8709 189.8471 189.7809 189.6443 189.3562 188.9444 188.4104 187.8239 187.2938 186.723 186.0277 185.1767 184.2159 182.9159 181.0784 179.8089 179.8763 181.3306 183.8749 186.2318 188.6644 190.7235 192.4882 193.8866 194.8776 195.3984 195.4647 195.763 196.1124 196.4272 196.7426 197.089 197.4954 197.9516 198.4123 198.8795 199.367 199.8692 200.3749 200.8841 201.4021 201.9393 202.4662 202.968 203.4523 203.9167 204.3467 204.7509 205.1416 205.5286 205.9162 206.2927 206.6528 207.0078 207.3761 207.7558 208.134 208.5216 208.9192 209.3139 209.6939 210.0804 210.48 210.8951 211.3433 211.9028 212.5669 213.1983 213.5886 -9999 -9999 -9999 -9999 -9999 -9999 -9999 -9999 -9999 -9999 -9999 -9999 -9999 -9999 -9999 -9999 -9999 -9999 -9999 -9999 -9999 -9999 -9999 -9999 -9999 -9999 -9999 -9999 -9999 -9999 -9999 -9999 -9999 -9999 -9999 -9999 -9999 -9999 -9999 -9999 -9999 -9999 -9999 -9999 -9999 -9999 -9999 -9999 -9999 -9999 -9999 -9999 -9999 -9999 -9999 -9999 -9999 -9999 -9999 -9999 -9999 -9999 -9999 -9999 -9999 -9999 -9999 -9999 -9999 -9999 -9999 -9999 -9999 -9999 -9999 -9999 -9999 -9999 -9999 -9999 -9999 -9999 -9999 -9999 -9999 -9999 -9999 -9999 -9999 -9999 -9999 -9999 -9999 -9999 -9999 -9999 -9999 -9999 -9999 -9999 -9999 -9999 -9999 -9999 -9999 -9999 -9999 -9999 -9999 -9999 -9999 -9999 -9999 -9999 -9999 -9999 -9999 -9999 -9999 -9999 -9999 -9999 -9999 -9999 -9999 -9999 -9999 -9999 -9999 -9999 -9999 -9999 -9999 -9999 -9999 -9999 -9999 -9999 -9999 -9999 -9999 -9999 -9999 -9999 -9999 -9999 -9999 -9999 -9999 -9999 -9999 -9999 -9999 -9999 -9999 -9999 -9999 -9999 -9999 -9999 -9999 -9999 -9999 -9999 -9999 -9999 -9999 -9999 -9999 -9999 -9999 -9999 -9999 -9999 -9999 -9999 -9999 -9999 -9999 -9999 -9999 -9999 -9999 -9999 -9999 -9999 -9999 -9999 -9999 -9999 -9999 -9999 -9999 -9999 -9999 -9999 -9999 -9999 -9999 -9999 -9999 -9999
127.6395 127.9014 128.1615 128.4188 128.6715 128.922 129.1712 129.4202 129.6691 129.8975 130.1127 130.3613 130.6684 130.9914 131.332 131.7017 132.0984 132.5091 132.9233 133.3342 133.7427 134.1496 134.5526 134.9692 135.4082 135.8703 136.3397 136.7748 137.1929 137.6252 137.9671 138.2581 138.5246 138.7789 139.0178 139.2782 139.5138 139.7362 139.9375 140.1062 140.254 140.3583 140.4136 140.4985 140.4901 140.3813 140.3578 140.4422 140.5631 140.7645 141.0826 141.4794 141.921 142.4086 142.9559 143.5608 144.1962 144.8428 145.4978 146.1456 146.8231 147.5193 148.2148 148.8902 149.5379 150.1727 150.8125 151.4603 152.1073 152.7376 153.3341 153.8828 154.3996 154.9095 155.4133 155.9032 156.3765 156.8347 157.2807 157.721 158.1831 158.6585 159.138 159.6171 160.0929 160.5594 161.0066 161.4267 161.8235 162.2055 162.5804 162.9552 163.3343 163.7283 164.1509 164.601 165.0603 165.5394 166.0497 166.5872 167.1394 167.6902 168.2258 168.7391 169.2363 169.72 170.1912 170.6523 171.088 171.487 171.8571 172.2187 172.5645 172.9046 173.2741 173.6689 174.058 174.4025 174.6811 174.9518 175.1616 175.3585 175.4528 175.436 175.2726 174.9186 174.6365 174.1867 174.5057 177.1617 180.0433 181.4303 182.4631 183.0553 183.4583 183.8566 184.3264 184.8702 185.3813 185.8174 186.2456 186.6671 187.0414 187.3903 187.705 187.9883 188.2253 188.4106 188.5419 188.6448 188.6974 188.7533 188.8338 188.9155 188.9815 189.0377 189.093 189.1432 189.1784 189.2444 189.2948 189.3034 189.3041 189.2798 189.2256 189.076 188.7423 188.3039 187.6999 186.9594 186.1784 185.532 184.8982 184.1645 183.3119 181.9459 180.6843 179.798 179.6789 181.4542 183.8662 186.1484 188.5376 190.556 192.1994 193.4492 194.2758 194.5843 194.8307 195.2164 195.5762 195.9197 196.2688 196.6479 197.0761 197.5127 197.9625 198.4356 198.9267 199.4291 199.9312 200.433 200.9491 201.4773 201.9885 202.492 202.9877 203.448 203.865 204.2617 204.6534 205.0426 205.4181 205.7752 206.1225 206.4746 206.8401 207.2037 207.5769 207.9585 208.3431 208.7045 209.0658 209.45 209.8312 210.2156 210.6421 211.1544 211.8187 212.3631 212.8934 -9999 -9999 -9999 -9999 -9999 -9999 -9999 -9999 -9999 -9999 -9999 -9999 -9999 -9999 -9999 -9999 -9999 -9999 -9999 -9999 -9999 -9999 -9999 -9999 -9999 -9999 -9999 -9999 -9999 -9999 -9999 -9999 -9999 -9999 -9999 -9999 -9999 -9999 -9999 -9999 -9999 -9999 -9999 -9999 -9999 -9999 -9999 -9999 -9999 -9999 -9999 -9999 -9999 -9999 -9999 -9999 -9999 -9999 -9999 -9999 -9999 -9999 -9999 -9999 -9999 -9999 -9999 -9999 -9999 -9999 -9999 -9999 -9999 -9999 -9999 -9999 -9999 -9999 -9999 -9999 -9999 -9999 -9999 -9999 -9999 -9999 -9999 -9999 -9999 -9999 -9999 -9999 -9999 -9999 -9999 -9999 -9999 -9999 -9999 -9999 -9999 -9999 -9999 -9999 -9999 -9999 -9999 -9999 -9999 -9999 -9999 -9999 -9999 -9999 -9999 -9999 -9999 -9999 -9999 -9999 -9999 -9999 -9999 -9999 -9999 -9999 -9999 -9999 -9999 -9999 -9999 -9999 -9999 -9999 -9999 -9999 -9999 -9999 -9999 -9999 -9999 -9999 -9999 -9999 -9999 -9999 -9999 -9999 -9999 -9999 -9999 -9999 -9999 -9999 -9999 -9999 -9999 -9999 -9999 -9999 -9999 -9999 -9999 -9999 -9999 -9999 -9999 -9999 -9999 -9999 -9999 -9999 -9999 -9999 -9999 -9999 -9999 -9999 -9999 -9999 -9999 -9999 -9999 -9999 -9999 -9999 -9999 -9999 -9999 -9999 -9999 -9999 -9999 -9999 -9999 -9999 -9999 -9999 -9999 -9999 -9999 -9999
127.2987 127.5585 127.8195 128.0759 128.3304 128.5854 128.8426 129.1012 129.3379 129.5578 129.8008 130.0961 130.419 130.759 131.1203 131.5024 131.8994 132.3034 132.7073 133.107 133.4863 133.8425 134.2592 134.7 135.1514 135.6228 136.0795 136.5517 137.0343 137.4134 137.7167 137.9705 138.1994 138.3628 138.5972 138.8277 139.0441 139.2536 139.4411 139.6018 139.7494 139.8564 139.9311 140.0241 140.0209 139.9265 139.9126 139.9936 140.0952 140.3233 140.6676 141.063 141.5379 142.0941 142.7006 143.3264 143.9516 144.5712 145.1926 145.8347 146.5023 147.1856 147.8693 148.5463 149.2215 149.8864 150.5466 151.2036 151.8457 152.4544 153.0106 153.5368 154.052 154.5611 155.0679 155.569 156.0572 156.5285 156.9943 157.4696 157.943 158.4108 158.8762 159.3453 159.8211 160.3042 160.771 161.2082 161.6111 161.9818 162.3291 162.6745 163.0347 163.4055 163.8131 164.2527 164.693 165.1476 165.6351 166.1555 166.6971 167.2436 167.7797 168.2963 168.8084 169.3163 169.8022 170.2682 170.7094 171.1172 171.497 171.8592 172.2055 172.5842 172.9817 173.3567 173.6771 173.9603 174.1996 174.5161 175.1141 175.2417 175.156 175.1833 175.1312 174.7187 174.4243 174.1168 175 178.7745 180.8723 182.1638 183.0662 183.5939 183.8564 184.0086 184.2005 184.5271 184.9789 185.4472 185.8776 186.2694 186.6313 186.9705 187.2828 187.5589 187.7981 187.9676 188.09 188.1659 188.1855 188.2165 188.2904 188.3708 188.4268 188.4734 188.529 188.5746 188.6024 188.6357 188.7011 188.708 188.7031 188.6782 188.6633 188.5325 188.1671 187.7077 187.0532 186.2346 185.3289 184.4244 183.7096 183.0687 182.3579 181.2113 180.2064 179.6829 179.754 181.2459 183.7585 186.0341 188.4361 190.3849 191.9173 192.9926 193.5138 193.9205 194.2827 194.6718 195.0455 195.4196 195.8046 196.2143 196.6362 197.076 197.5402 198.013 198.5046 199.0003 199.4989 200.0031 200.5133 201.0234 201.5312 202.0418 202.5361 202.9774 203.3871 203.7876 204.1809 204.5612 204.9201 205.2654 205.6094 205.9608 206.3116 206.6673 207.0283 207.3952 207.7515 208.088 208.4423 208.8148 209.1794 209.5692 209.9874 210.4981 211.0789 211.4885 212.1133 -9999 -9999 -9999 -9999 -9999 -9999 -9999 -9999 -9999 -9999 -9999 -9999 -9999 -9999 -9999 -9999 -9999 -9999 -9999 -9999 -9999 -9999 -9999 -9999 -9999 -9999 -9999 -9999 -9999 -9999 -9999 -9999 -9999 -9999 -9999 -9999 -9999 -9999 -9999 -9999 -9999 -9999 -9999 -9999 -9999 -9999 -9999 -9999 -9999 -9999 -9999 -9999 -9999 -9999 -9999 -9999 -9999 -9999 -9999 -9999 -9999 -9999 -9999 -9999 -9999 -9999 -9999 -9999 -9999 -9999 -9999 -9999 -9999 -9999 -9999 -9999 -9999 -9999 -9999 -9999 -9999 -9999 -9999 -9999 -9999 -9999 -9999 -9999 -9999 -9999 -9999 -9999 -9999 -9999 -9999 -9999 -9999 -9999 -9999 -9999 -9999 -9999 -9999 -9999 -9999 -9999 -9999 -9999 -9999 -9999 -9999 -9999 -9999 -9999 -9999 -9999 -9999 -9999 -9999 -9999 -9999 -9999 -9999 -9999 -9999 -9999 -9999 -9999 -9999 -9999 -9999 -9999 -9999 -9999 -9999 -9999 -9999 -9999 -9999 -9999 -9999 -9999 -9999 -9999 -9999 -9999 -9999 -9999 -9999 -9999 -9999 -9999 -9999 -9999 -9999 -9999 -9999 -9999 -9999 -9999 -9999 -9999 -9999 -9999 -9999 -9999 -9999 -9999 -9999 -9999 -9999 -9999 -9999 -9999 -9999 -9999 -9999 -9999 -9999 -9999 -9999 -9999 -9999 -9999 -9999 -9999 -9999 -9999 -9999 -9999 -9999 -9999 -9999 -9999 -9999 -9999 -9999 -9999 -9999 -9999 -9999 -9999
126.9637 127.223 127.4806 127.7365 127.9954 128.2628 128.5349 128.78 129.0043 129.2435 129.5318 129.8661 130.2206 130.5869 130.9606 131.3368 131.7122 132.0883 132.4364 132.7381 133.0447 133.4358 133.9118 134.3835 134.8491 135.3251 135.8398 136.3702 136.8074 137.1555 137.4288 137.6573 137.8134 137.9233 138.1558 138.3638 138.5562 138.759 138.936 139.0973 139.2513 139.3662 139.4664 139.5782 139.68 139.7456 139.6316 139.652 139.7484 139.9755 140.3284 140.7584 141.2735 141.8569 142.4741 143.0808 143.6885 144.3088 144.9297 145.5551 146.1978 146.8585 147.5499 148.2631 148.9709 149.6528 150.3085 150.9451 151.5515 152.1137 152.6521 153.1761 153.6905 154.2 154.7081 155.2151 155.7147 156.2094 156.6937 157.1714 157.6467 158.121 158.595 159.0869 159.5816 160.0621 160.5187 160.9454 161.3374 161.7005 162.0497 162.398 162.7276 163.0931 163.4983 163.9195 164.3374 164.7679 165.2263 165.7248 166.2529 166.7933 167.329 167.8479 168.3851 168.9196 169.4278 169.9231 170.375 170.788 171.1697 171.5295 171.913 172.2905 172.6325 172.9548 173.245 173.4907 173.6841 173.9816 174.4814 174.4095 174.3087 174.3262 174.0737 174.2173 174.0249 174.4217 175.7339 179.8364 181.3099 182.4821 183.2645 183.6776 183.8327 183.8849 183.9865 184.2395 184.6478 185.0781 185.4854 185.8639 186.2161 186.5489 186.8595 187.1265 187.3693 187.5228 187.636 187.6719 187.6635 187.6709 187.7313 187.8063 187.8497 187.8931 187.9477 187.9856 188.0072 188.0116 188.0676 188.0814 188.0699 188.0441 188.0937 188.0026 187.6242 187.1508 186.4669 185.6059 184.6464 183.6755 182.7719 182.0688 181.4721 180.6391 179.9222 179.4178 179.7155 180.9504 183.6113 186.0979 188.48 190.2888 191.6225 192.5095 193.0795 193.4017 193.7636 194.1523 194.5348 194.932 195.3453 195.7666 196.2048 196.6648 197.1326 197.6065 198.0916 198.5804 199.0792 199.5835 200.0885 200.5924 201.1016 201.6108 202.0849 202.5167 202.9355 203.3318 203.7241 204.0875 204.4339 204.7764 205.1215 205.464 205.801 206.1388 206.483 206.8319 207.1559 207.482 207.8067 208.1687 208.528 208.931 209.3534 209.8664 210.2608 210.6281 211.1895 -9999 -9999 -9999 -9999 -9999 -9999 -9999 -9999 -9999 -9999 -9999 -9999 -9999 -9999 -9999 -9999 -9999 -9999 -9999 -9999 -9999 -9999 -9999 -9999 -9999 -9999 -9999 -9999 -9999 -9999 -9999 -9999 -9999 -9999 -9999 -9999 -9999 -9999 -9999 -9999 -9999 -9999 -9999 -9999 -9999 -9999 -9999 -9999 -9999 -9999 -9999 -9999 -9999 -9999 -9999 -9999 -9999 -9999 -9999 -9999 -9999 -9999 -9999 -9999 -9999 -9999 -9999 -9999 -9999 -9999 -9999 -9999 -9999 -9999 -9999 -9999 -9999 -9999 -9999 -9999 -9999 -9999 -9999 -9999 -9999 -9999 -9999 -9999 -9999 -9999 -9999 -9999 -9999 -9999 -9999 -9999 -9999 -9999 -9999 -9999 -9999 -9999 -9999 -9999 -9999 -9999 -9999 -9999 -9999 -9999 -9999 -9999 -9999 -9999 -9999 -9999 -9999 -9999 -9999 -9999 -9999 -9999 -9999 -9999 -9999 -9999 -9999 -9999 -9999 -9999 -9999 -9999 -9999 -9999 -9999 -9999 -9999 -9999 -9999 -9999 -9999 -9999 -9999 -9999 -9999 -9999 -9999 -9999 -9999 -9999 -9999 -9999 -9999 -9999 -9999 -9999 -9999 -9999 -9999 -9999 -9999 -9999 -9999 -9999 -9999 -9999 -9999 -9999 -9999 -9999 -9999 -9999 -9999 -9999 -9999 -9999 -9999 -9999 -9999 -9999 -9999 -9999 -9999 -9999 -9999 -9999 -9999 -9999 -9999 -9999 -9999 -9999 -9999 -9999 -9999 -9999 -9999 -9999 -9999 -9999 -9999 -9999
126.6401 126.8953 127.1492 127.4088 127.6846 127.9675 128.2242 128.4539 128.6911 128.9759 129.3367 129.7225 130.0937 130.4469 130.7886 131.1301 131.4448 131.7123 131.9517 132.2064 132.5416 133.0099 133.5221 134.0234 134.5213 135.0718 135.6171 136.1097 136.52 136.8488 137.1128 137.3088 137.3377 137.4954 137.6997 137.8856 138.0648 138.256 138.4291 138.5967 138.7581 138.884 139.0135 139.1366 139.2495 139.3557 139.4691 139.5921 139.6698 139.8246 140.207 140.6757 141.1844 141.7033 142.2553 142.8502 143.4659 144.0836 144.6926 145.2962 145.9173 146.5854 147.2957 148.0229 148.7344 149.4048 150.0288 150.6241 151.1942 151.747 152.284 152.8083 153.324 153.8318 154.3378 154.8526 155.3584 155.8604 156.3587 156.8531 157.3416 157.8358 158.3445 158.8404 159.3139 159.7763 160.2215 160.6412 161.0353 161.4111 161.7712 162.0883 162.4224 162.7951 163.202 163.6006 163.9959 164.4037 164.8367 165.308 165.8188 166.3507 166.8839 167.407 167.9706 168.5168 169.0909 169.6264 170.0814 170.4855 170.8617 171.2326 171.5879 171.9333 172.2587 172.5512 172.7981 172.9907 173.1422 173.3774 173.6763 173.1776 172.952 172.3515 171.0227 171.9776 173.58 174.6069 177.3913 180.4821 181.4177 182.4362 183.0701 183.3585 183.4269 183.441 183.5593 183.8805 184.2737 184.6898 185.0849 185.4473 185.7925 186.1228 186.4211 186.6961 186.9284 187.0724 187.16 187.1644 187.1352 187.1243 187.1666 187.2309 187.263 187.3102 187.3528 187.3818 187.3983 187.4006 187.4126 187.437 187.4187 187.4087 187.519 187.4686 187.0979 186.618 185.9256 185.0547 184.0811 183.0936 182.1762 181.3909 180.7872 180.2156 179.6269 179.3412 179.7028 181.2946 183.7855 186.2041 188.4986 190.102 191.3043 192.1376 192.5874 192.8633 193.2692 193.6617 194.0557 194.4681 194.8949 195.3358 195.7955 196.2661 196.731 197.2049 197.683 198.1722 198.6685 199.1677 199.6773 200.186 200.6934 201.1893 201.6491 202.0891 202.4952 202.9042 203.2789 203.6292 203.9718 204.3164 204.654 204.9817 205.2982 205.6171 205.9443 206.267 206.5747 206.8568 207.1961 207.5327 207.9128 208.2942 208.7253 209.144 209.3927 209.716 210.1267 210.1694 -9999 -9999 -9999 -9999 -9999 -9999 -9999 -9999 -9999 -9999 -9999 -9999 -9999 -9999 -9999 -9999 -9999 -9999 -9999 -9999 -9999 -9999 -9999 -9999 -9999 -9999 -9999 -9999 -9999 -9999 -9999 -9999 -9999 -9999 -9999 -9999 -9999 -9999 -9999 -9999 -9999 -9999 -9999 -9999 -9999 -9999 -9999 -9999 -9999 -9999 -9999 -9999 -9999 -9999 -9999 -9999 -9999 -9999 -9999 -9999 -9999 -9999 -9999 -9999 -9999 -9999 -9999 -9999 -9999 -9999 -9999 -9999 -9999 -9999 -9999 -9999 -9999 -9999 -9999 -9999 -9999 -9999 -9999 -9999 -9999 -9999 -9999 -9999 -9999 -9999 -9999 -9999 -9999 -9999 -9999 -9999 -9999 -9999 -9999 -9999 -9999 -9999 -9999 -9999 -9999 -9999 -9999 -9999 -9999 -9999 -9999 -9999 -9999 -9999 -9999 -9999 -9999 -9999 -9999 -9999 -9999 -9999 -9999 -9999 -9999 -9999 -9999 -9999 -9999 -9999 -9999 -9999 -9999 -9999 -9999 -9999 -9999 -9999 -9999 -9999 -9999 -9999 -9999 -9999 -9999 -9999 -9999 -9999 -9999 -9999 -9999 -9999 -9999 -9999 -9999 -9999 -9999 -9999 -9999 -9999 -9999 -9999 -9999 -9999 -9999 -9999 -9999 -9999 -9999 -9999 -9999 -9999 -9999 -9999 -9999 -9999 -9999 -9999 -9999 -9999 -9999 -9999 -9999 -9999 -9999 -9999 -9999 -9999 -9999 -9999 -9999 -9999 -9999 -9999 -9999 -9999 -9999 -9999 -9999 -9999 -9999
126.3291 126.5778 126.8353 127.1134 127.4013 127.6702 127.9069 128.1441 128.4315 128.8186 129.2261 129.6004 129.9359 130.2541 130.5531 130.8105 131.0246 131.2137 131.414 131.6783 132.0708 132.5725 133.0563 133.493 134.1975 134.8065 135.3177 135.7877 136.1909 136.518 136.7788 136.8247 136.863 137.0533 137.2393 137.3877 137.5715 137.7529 137.9301 138.1028 138.2706 138.4151 138.5675 138.7033 138.8315 138.9612 139.109 139.2936 139.5303 139.8216 140.1652 140.5624 141.0044 141.5065 142.0595 142.6491 143.2578 143.8666 144.4603 145.0508 145.6623 146.3188 147.0162 147.7295 148.4264 149.0809 149.6865 150.2561 150.7951 151.3056 151.7966 152.2847 152.7911 153.3393 153.9277 154.4731 154.9907 155.504 156.0176 156.5258 157.0443 157.5518 158.0345 158.5088 159.0014 159.4646 159.8976 160.3155 160.7248 161.1123 161.4476 161.7729 162.1409 162.5197 162.9162 163.2941 163.669 164.0566 164.4701 164.9173 165.4073 165.9279 166.4562 166.9874 167.5608 168.1561 168.7937 169.3534 169.806 170.1931 170.5612 170.9203 171.2685 171.5961 171.8901 172.1368 172.3264 172.4557 172.5906 172.7076 172.7299 171.7856 171.4608 170.0281 169.6436 170.7089 172.7433 174.7501 178.7689 180 181.3288 182.0611 182.5762 182.7848 182.8349 182.9103 183.1734 183.5056 183.8929 184.2984 184.6691 185.0198 185.36 185.6807 185.9753 186.2611 186.4722 186.6093 186.6642 186.6478 186.6058 186.5833 186.6079 186.6571 186.6846 186.7245 186.7532 186.7731 186.785 186.7874 186.776 186.7936 186.7692 186.7937 186.9419 186.9171 186.5694 186.0896 185.4085 184.5554 183.5994 182.6268 181.7231 180.9561 180.3578 179.9043 179.5286 179.3595 179.7246 181.6261 184.0733 186.183 188.2648 189.9017 190.9229 191.657 192.0401 192.3749 192.7984 193.1984 193.6042 194.0272 194.469 194.9272 195.3976 195.8681 196.3332 196.8037 197.2829 197.7591 198.2487 198.7681 199.289 199.8008 200.2998 200.7835 201.2436 201.6686 202.0966 202.4931 202.8588 203.2132 203.5574 203.8736 204.1828 204.4998 204.8026 205.1058 205.4171 205.7171 205.9865 206.2751 206.6041 206.9552 207.3328 207.6595 208.057 208.3514 208.4245 208.5159 208.8324 208.6414 -9999 -9999 -9999 -9999 -9999 -9999 -9999 -9999 -9999 -9999 -9999 -9999 -9999 -9999 -9999 -9999 -9999 -9999 -9999 -9999 -9999 -9999 -9999 -9999 -9999 -9999 -9999 -9999 -9999 -9999 -9999 -9999 -9999 -9999 -9999 -9999 -9999 -9999 -9999 -9999 -9999 -9999 -9999 -9999 -9999 -9999 -9999 -9999 -9999 -9999 -9999 -9999 -9999 -9999 -9999 -9999 -9999 -9999 -9999 -9999 -9999 -9999 -9999 -9999 -9999 -9999 -9999 -9999 -9999 -9999 -9999 -9999 -9999 -9999 -9999 -9999 -9999 -9999 -9999 -9999 -9999 -9999 -9999 -9999 -9999 -9999 -9999 -9999 -9999 -9999 -9999 -9999 -9999 -9999 -9999 -9999 -9999 -9999 -9999 -9999 -9999 -9999 -9999 -9999 -9999 -9999 -9999 -9999 -9999 -9999 -9999 -9999 -9999 -9999 -9999 -9999 -9999 -9999 -9999 -9999 -9999 -9999 -9999 -9999 -9999 -9999 -9999 -9999 -9999 -9999 -9999 -9999 -9999 -9999 -9999 -9999 -9999 -9999 -9999 -9999 -9999 -9999 -9999 -9999 -9999 -9999 -9999 -9999 -9999 -9999 -9999 -9999 -9999 -9999 -9999 -9999 -9999 -9999 -9999 -9999 -9999 -9999 -9999 -9999 -9999 -9999 -9999 -9999 -9999 -9999 -9999 -9999 -9999 -9999 -9999 -9999 -9999 -9999 -9999 -9999 -9999 -9999 -9999 -9999 -9999 -9999 -9999 -9999 -9999 -9999 -9999 -9999 -9999 -9999 -9999 -9999 -9999 -9999 -9999 -9999 -9999
